# .PCD v0.7 - Point Cloud Data file format
VERSION 0.7
FIELDS x y z rgb
SIZE 4 4 4 4
TYPE F F F U
COUNT 1 1 1 1
WIDTH 262
HEIGHT 1
VIEWPOINT 0 0 0 1 0 0 0
POINTS 262
DATA ascii
-2647.1899 9865.7305 14212.08 4286294082
-2664.9399 9882.6504 14213.89 4286294082
-2651.45 9881.6396 14213.42 4286294082
-2644.26 9881.29 14207.48 4286294082
-2636.6599 9883.2803 14213.18 4286294082
-2627.1001 9881.6504 14210.42 4286294082
-2620.24 9882.5596 14209.2 4286294082
-2614.5601 9884.0596 14209.2 4286294082
-2606.6499 9888.6602 14211.16 4286294082
-2678.1101 9901.2695 14219.16 4286294082
-2668.71 9896.6201 14210.98 4286294082
-2655.48 9896.6504 14213.44 4286294082
-2647.5601 9897.4502 14208.8 4286294082
-2640.4399 9897.4404 14211.99 4286294082
-2631.26 9897.3203 14209.96 4286294082
-2623.77 9895.8799 14206.79 4286294082
-2618.0801 9897.3896 14206.79 4286294082
-2610.3899 9902.8496 14209.96 4286294082
-2672.0701 9909.0801 14207.33 4286294082
-2659.52 9911.71 14213.53 4286294082
-2651.3501 9911.6201 14207.59 4286294082
-2644 9910.7695 14209.55 4286294082
-2634.5801 9909.79 14206.32 4286294082
-2628.45 9913.5 14210.54 4286294082
-2622.0601 9912.4102 14206.81 4286294082
-2615.05 9920.5303 14213.78 4286294082
-2685.54 9928.75 14215.5 4286294082
-2675.8899 9923.2402 14206.11 4286294082
-2662.5801 9923.0898 14206.87 4286294082
-2656.24 9929.9004 14210.82 4286294082
-2648.01 9925.79 14209.55 4286294082
-2631.29 9924.2197 14204.38 4286294082
-2626.27 9928.3398 14208.11 4286294082
-2618.3201 9932.96 14210.04 4286294082
-2698.3601 9945.8701 14219.99 4286294082
-2688.8701 9941.0303 14210.12 4286294082
-2682.05 9946.0801 14217.26 4286294082
-2665.9199 9935.5596 14203.2 4286294082
-2659.5801 9942.3701 14207.15 4286294082
-2650.6101 9939.3799 14207.1 4286294082
-2643.05 9941.6504 14208.89 4286294082
-2636.2 9942.7598 14209.39 4286294082
-2629.75 9941.4805 14203.95 4286294082
-2621.79 9946.1104 14205.89 4286294082
-2614.72 9950.25 14211.82 4286294082
-2701.45 9957.25 14213.3 4286294082
-2693.1699 9956.96 14211.37 4286294082
-2685.1799 9957.7002 14212.36 4286294082
-2672.51 9960.1201 14216.75 4286294082
-2663.1399 9955.7002 14204.69 4286294082
-2655.55 9957.9199 14212.09 4286294082
-2646.1299 9953.2197 14203.92 4286294082
-2639 9953.2998 14201.49 4286294082
-2635.5601 9963.4404 14213.8 4286294082
-2626.22 9962.9102 14208.36 4286294082
-2617.27 9963.8496 14209.35 4286294082
-2604.5901 9969.9902 14207.38 4286294082
-2598.6299 9974.54 14212.81 4286294082
-2590.1899 9973.5098 14211.37 4286294082
-2581.3 9974.6396 14208.36 4286294082
-2577.6101 9988 14209.16 4286294082
-2563.52 9988.8301 14205.44 4286294082
-2555.3401 9992.75 14207.87 4286294082
-2547.1201 9992.5303 14207.64 4286294082
-2537.6899 9987.5098 14203.47 4286294082
-2689.71 9974.4902 14214.81 4286294082
-2674.48 9967.4404 14205.7 4286294082
-2668.1101 9974.25 14209.65 4286294082
-2658.3601 9968.4502 14204.18 4286294082
-2649.8501 9967.21 14200.95 4286294082
-2644.3701 9973.5596 14208.89 4286294082
-2638.1699 9973.3096 14206.38 4286294082
-2630.2 9978.0098 14208.4 4286294082
-2621.02 9978.0996 14208.17 4286294082
-2607.8501 9982.4902 14203.68 4286294082
-2601.6599 9986.1904 14207.9 4286294082
-2594.5601 9990.3301 14213.83 4286294082
-2585.8899 9992.3799 14212.12 4286294082
-2570.8401 9989.4697 14207.37 4286294082
-2567.8401 10005.67 14207.89 4286294082
-2551.8701 10011.14 14212.6 4286294082
-2543.02 10008.49 14210.37 4286294082
-2527.1499 10002.31 14202.47 4286294082
-2520.49 10012.31 14207.86 4286294082
-2512.71 10013.84 14210.14 4286294082
-2504.0901 10012.02 14203.42 4286294082
-2497.96 10011.96 14202.69 4286294082
-2490.28 10013.87 14202.69 4286294082
-2463.04 10027.38 14201.74 4286294082
-2454.48 10029.89 14205.16 4286294082
-2725.03 9991.0801 14226.61 4286294082
-2708.6799 9983.8896 14208.31 4286294082
-2701.3201 9987.0703 14211.32 4286294082
-2692.78 9985.8701 14208.09 4286294082
-2685.95 9987.21 14210.3 4286294082
-2672.1299 9989.3096 14209.57 4286294082
-2664.46 9991.3301 14215.28 4286294082
-2654.78 9985.7803 14205.91 4286294082
-2647.21 9984.2803 14202.68 4286294082
-2642.1599 9988.4199 14206.4 4286294082
-2634.1699 9993.0596 14208.33 4286294082
-2624.9199 9992.96 14206.4 4286294082
-2617.77 9996.9502 14204.92 4286294082
-2605.3601 10000.4 14206.62 4286294082
-2596.6699 9998.46 14203.89 4286294082
-2588.45 10002.27 14204.69 4286294082
-2575.1699 10006.31 14209.82 4286294082
-2571.22 10018.85 14203.68 4286294082
-2562.3501 10020.15 14202.39 4286294082
-2560.05 10011.16 14211.11 4286294082
-2554.3899 10021.04 14205.17 4286294082
-2545.75 10019.25 14204.15 4286294082
-2531.6299 10020.03 14206.13 4286294082
-2525.1799 10030.94 14212.8 4286294082
-2516.0701 10027.23 14207.64 4286294082
-2507.6699 10026.34 14202.21 4286294082
-2501.95 10027.97 14203.92 4286294082
-2495.0801 10033.18 14207.15 4286294082
-2485.28 10030.71 14204.92 4286294082
-2466.22 10044.51 14204.18 4286294082
-2458.77 10047.45 14207.1 4286294082
-2442.99 10049.69 14206.38 4286294082
-2436.4099 10047.8 14203.16 4286294082
-2428.1799 10047.5 14197.24 4286294082
-2728.8999 10005.27 14225.3 4286294082
-2712.77 9998.9805 14208.3 4286294082
-2697.78 10004.43 14213.02 4286294082
-2682.97 9999.0801 14206.35 4286294082
-2676.8101 10006.77 14211.5 4286294082
-2667.8 10003.82 14211.56 4286294082
-2658.78 10000.82 14205.83 4286294082
-2651.6699 10001.09 14205.11 4286294082
-2646.6101 10005.23 14208.83 4286294082
-2637.46 10005.56 14204.62 4286294082
-2629.5601 10010.64 14210.04 4286294082
-2615.96 10013.52 14204.84 4286294082
-2608.79 10013.56 14202.41 4286294082
-2601.21 10015.95 14205.83 4286294082
-2592.5701 10018.19 14205.83 4286294082
-2589.6799 10034.8 14209.73 4286294082
-2575.98 10037.41 14208.52 4286294082
-2566 10034.43 14201.17 4286294082
-2558.24 10036.13 14205.08 4286294082
-2549.3701 10033.49 14202.85 4286294082
-2542.8701 10036.12 14204.14 4286294082
-2536.3401 10038.66 14211.06 4286294082
-2526.5801 10036.52 14199.21 4286294082
-2518.98 10038.85 14202.63 4286294082
-2512.49 10045.59 14206.57 4286294082
-2505.51 10042.22 14202.63 4286294082
-2498.8401 10048.29 14207.06 4286294082
-2488.8101 10044.97 14203.62 4286294082
-2482.24 10051.47 14211.56 4286294082
-2473.6599 10045.69 14203.9 4286294082
-2470.79 10063.12 14209.02 4286294082
-2461.6399 10059.14 14202.16 4286294082
-2453.6001 10059.7 14203.16 4286294082
-2447.26 10067.26 14208.3 4286294082
-2439.98 10066.71 14208.09 4286294082
-2433.3201 10068.76 14205.8 4286294082
-2425.28 10069.29 14206.79 4286294082
-2418.3401 10074.45 14210.01 4286294082
-2739.8 10018.74 14221.27 4286294082
-2679.6699 10017.5 14205.25 4286294082
-2669.73 10011.07 14200.39 4286294082
-2662.3301 10014.17 14203.31 4286294082
-2650.27 10022.97 14210.74 4286294082
-2642.0701 10023.04 14206.53 4286294082
-2633.0701 10024 14207.53 4286294082
-2626.98 10032.13 14210.46 4286294082
-2613.8601 10033.03 14208.54 4286294082
-2606.05 10034.56 14210.74 4286294082
-2597.3899 10036.81 14210.74 4286294082
-2582.8999 10036.34 14208.02 4286294082
-2578.74 10048.16 14202.28 4286294082
-2570.99 10053.92 14207.29 4286294082
-2562.27 10051.94 14204.57 4286294082
-2554.3201 10052.99 14208.97 4286294082
-2547.5801 10054.7 14208.97 4286294082
-2541.72 10059.96 14208.28 4286294082
-2531.9199 10057.74 14207.76 4286294082
-2523.1699 10055.53 14203.33 4286294082
-2516.28 10060.76 14206.55 4286294082
-2510.3301 10061.54 14207.04 4286294082
-2502.3799 10062.55 14205.75 4286294082
-2493.21 10062.72 14207.25 4286294082
-2485.1101 10063.11 14206.53 4286294082
-2477.8201 10062.59 14206.31 4286294082
-2474.04 10076.33 14204.78 4286294082
-2466.4199 10078.68 14208.28 4286294082
-2457.9299 10077.47 14206.77 4286294082
-2450.0901 10078.9 14203.27 4286294082
-2444.0801 10083.63 14210.49 4286294082
-2436.5601 10082.18 14203.27 4286294082
-2428.9399 10084.5 14206.77 4286294082
-2421.3101 10086.82 14204.57 4286294082
-2751.3701 10030.82 14225.63 4286294082
-2665.6499 10026.66 14199.57 4286294082
-2653.1101 10033.7 14204.5 4286294082
-2645.3601 10035.54 14202.79 4286294082
-2636.3601 10036.5 14203.79 4286294082
-2630.26 10044.64 14206.72 4286294082
-2618.9399 10052.51 14203.24 4286294082
-2609.98 10049.7 14210.72 4286294082
-2599.6599 10045.59 14200.29 4286294082
-2585.8999 10048 14203.07 4286294082
-2583.53 10066.8 14207.17 4286294082
-2574.6299 10068.17 14205.95 4286294082
-2566.3501 10067.96 14205.74 4286294082
-2557.96 10067.29 14207.73 4286294082
-2550.9199 10067.89 14204.72 4286294082
-2543.7 10067.82 14207.93 4286294082
-2535.51 10072 14206.43 4286294082
-2526.98 10070.7 14203.3 4286294082
-2519.6299 10074.16 14204.01 4286294082
-2513.6699 10074.94 14204.51 4286294082
-2506.8101 10080.36 14209.44 4286294082
-2498.49 10084.04 14204.45 4286294082
-2489.0701 10079.15 14207.71 4286294082
-2480.9099 10075.14 14202.57 4286294082
-2477.1201 10088.89 14201.03 4286294082
-2469.7 10092.1 14205.74 4286294082
-2461 10090.04 14203.02 4286294082
-2454.4299 10096.74 14206.95 4286294082
-2446.28 10092.71 14201.8 4286294082
-2439.6001 10094.74 14199.53 4286294082
-2432.76 10100.38 14206.23 4286294082
-2425.5901 10104.62 14208.16 4286294082
-2620.6101 10058.9 14202.25 4286294082
-2605.6001 10068.56 14211.3 4286294082
-2590.24 10064.86 14205.46 4286294082
-2587.1799 10081.04 14205.82 4286294082
-2570.6499 10084.84 14208.11 4286294082
-2560.8601 10078.71 14200.96 4286294082
-2554.76 10083.06 14204.67 4286294082
-2547.54 10082.99 14207.88 4286294082
-2538.0901 10086.29 14203.38 4286294082
-2530.77 10085.82 14203.17 4286294082
-2523.4099 10089.28 14203.88 4286294082
-2517.1399 10092.94 14208.09 4286294082
-2509.1799 10094.01 14206.88 4286294082
-2500.29 10091.31 14204.67 4286294082
-2494.1299 10099.63 14203.68 4286294082
-2484.8601 10091.19 14203.75 4286294082
-2481.0601 10104.94 14202.19 4286294082
-2472.76 10104.6 14201.9 4286294082
-2464.6899 10105.18 14202.89 4286294082
-2457.05 10107.52 14200.69 4286294082
-2450.5901 10110.5 14205.39 4286294082
-2443.9099 10112.59 14203.19 4286294082
-2436.4099 10115.54 14206.1 4286294082
-2429.24 10119.83 14208.11 4286294082
-2512.51 10107.42 14204.32 4286294082
-2505.1299 10110.86 14210.74 4286294082
-2496.51 10109.28 14205.82 4286294082
-2476.8501 10121.33 14202.54 4286294082
-2461.1699 10124.47 14203.03 4286294082
-2454.6899 10127.43 14207.74 4286294082
-2448.01 10129.54 14205.53 4286294082
-2440.29 10131.62 14207.24 4286294082
-2493.78 10127.41 14210.38 4286294082
-2487.1499 10129.75 14204.16 4286294082
