# .PCD v0.7 - Point Cloud Data file format
VERSION 0.7
FIELDS x y z rgb
SIZE 4 4 4 4
TYPE F F F U
COUNT 1 1 1 1
WIDTH 246
HEIGHT 1
VIEWPOINT 0 0 0 1 0 0 0
POINTS 246
DATA ascii
-2984.99 10529.51 14226.49 4287751147
-2999.6201 10550.26 14219.52 4287751147
-2988.8 10542.93 14223.45 4287751147
-3003.7 10564.62 14217.73 4287751147
-2994.1399 10561.75 14227.68 4287751147
-3018.3799 10589.21 14230.97 4287751147
-3010.5801 10588.81 14229.13 4287751147
-2996.9299 10571.59 14219.79 4287751147
-3012.29 10594.83 14214.67 4287751147
-2999.71 10581.43 14211.88 4287751147
-2992.4299 10582.78 14212.41 4287751147
-2984.3501 10585.22 14208.37 4287751147
-3026.5601 10617.9 14227.21 4287751147
-3015.8401 10607.31 14210.3 4287751147
-3002.9399 10592.8 14204.63 4287751147
-3000.77 10612.29 14209.77 4287751147
-2991.8899 10611.98 14211.88 4287751147
-2982.0901 10608.36 14216.64 4287751147
-2973.21 10607.99 14213.08 4287751147
-2968.96 10624.16 14213.41 4287751147
-2962.3501 10624.1 14211.04 4287751147
-2952.26 10619.39 14203.11 4287751147
-3030.3201 10631.11 14222.37 4287751147
-3021.45 10627.05 14215.63 4287751147
-3009.55 10616.13 14214.8 4287751147
-3006.1101 10631.15 14213.92 4287751147
-2994.47 10621.1 14214.27 4287751147
-2988.3601 10630.65 14214.11 4287751147
-2978.6899 10631.45 14211.74 4287751147
-2958.01 10640.04 14209.63 4287751147
-3034.9199 10647.26 14222.86 4287751147
-3024.5 10637.76 14208.87 4287751147
-3015.1001 10639.59 14213.43 4287751147
-3010.1599 10645.48 14211.97 4287751147
-2997.9199 10633.37 14208.17 4287751147
-2990.3501 10637.72 14212.33 4287751147
-2981.1699 10640.3 14212.33 4287751147
-2971.6399 10633.77 14203.76 4287751147
-2971.1101 10655.49 14210.79 4287751147
-2962.75 10657.11 14211.32 4287751147
-3038.23 10658.86 14217.26 4287751147
-3029.3701 10658.77 14215.42 4287751147
-3017.4199 10647.78 14214.54 4287751147
-3002.23 10648.64 14207.48 4287751147
-2993.6101 10649.33 14206.75 4287751147
-2985.7 10656.47 14212.82 4287751147
-2978.1799 10657.15 14213.89 4287751147
-2974.6101 10668.05 14206.46 4287751147
-2965.47 10670.86 14208.16 4287751147
-2958.5601 10673.73 14209.34 4287751147
-3042.8401 10675.04 14217.71 4287751147
-3034.3999 10676.48 14216.53 4287751147
-3015.71 10665.11 14205.83 4287751147
-3008.05 10669.3 14213.95 4287751147
-2999.9299 10671.83 14215.67 4287751147
-2989.46 10669.92 14209.67 4287751147
-2983.6499 10676.75 14207.66 4287751147
-2979.6201 10686.02 14209.28 4287751147
-2969.21 10684.31 14205 4287751147
-2961.55 10684.53 14202.64 4287751147
-2953.02 10689.61 14210.22 4287751147
-2946.52 10694.03 14212.06 4287751147
-2939.55 10692.76 14206.72 4287751147
-2922.55 10699.15 14207.45 4287751147
-3054.05 10679.38 14225.62 4287751147
-3046.6699 10688.48 14214.53 4287751147
-3037.45 10687.2 14209.73 4287751147
-3026.8301 10680.99 14216.66 4287751147
-3021.49 10685.58 14200.76 4287751147
-3011.5901 10681.85 14209.6 4287751147
-3002.95 10682.56 14208.87 4287751147
-2993.73 10685.15 14208.87 4287751147
-2988.9399 10695.69 14201.95 4287751147
-2983.3101 10699.25 14204.39 4287751147
-2974.6499 10703.89 14208.55 4287751147
-2967.78 10707.01 14211.44 4287751147
-2957.4199 10705.52 14208.88 4287751147
-2949.99 10706.61 14207.7 4287751147
-2943.76 10708.07 14205.99 4287751147
-2934.6399 10711.08 14209.42 4287751147
-2926.72 10714.41 14206.63 4287751147
-2920.6599 10720.52 14214.95 4287751147
-2912.9099 10720.4 14210.79 4287751147
-2896.4399 10720.72 14204.27 4287751147
-2887.4299 10720.01 14204.61 4287751147
-2882.01 10728.54 14214.76 4287751147
-2865.99 10726.33 14208.12 4287751147
-3057.5601 10691.66 14219.45 4287751147
-3050.95 10703.47 14211.99 4287751147
-3042.8 10706.04 14213.7 4287751147
-3029.8 10691.48 14208.14 4287751147
-3028.6201 10710.77 14213.17 4287751147
-3016.9099 10700.7 14213.59 4287751147
-3007.75 10699.63 14210.5 4287751147
-2999.03 10704.06 14212.94 4287751147
-2988.8301 10719.06 14209.63 4287751147
-2980.1399 10723.65 14213.7 4287751147
-2971.26 10719.58 14207.07 4287751147
-2961.1399 10718.99 14205.7 4287751147
-2954.45 10722.81 14208.14 4287751147
-2949.3899 10728.56 14210.69 4287751147
-2937.6001 10721.88 14202.69 4287751147
-2931.8201 10733.06 14208.9 4287751147
-2923.8401 10732.16 14209.32 4287751147
-2917.05 10735.67 14209.97 4287751147
-2910.29 10739.24 14210.69 4287751147
-2901.3101 10738.73 14207.07 4287751147
-2892.72 10739.63 14208.14 4287751147
-2884.1201 10736.39 14202.69 4287751147
-2879.1101 10742.38 14212.64 4287751147
-2871.04 10745.24 14212.1 4287751147
-2860.8899 10740.28 14208.25 4287751147
-2853.21 10744.55 14212.41 4287751147
-2843.8999 10738.54 14203.33 4287751147
-2838.6699 10743.81 14208.14 4287751147
-2829.8101 10747.81 14208.79 4287751147
-2819.3999 10745.95 14204.51 4287751147
-2812.8 10754.39 14207.19 4287751147
-2805.98 10753.55 14205.36 4287751147
-2798.28 10753.58 14202.91 4287751147
-2776.1699 10770.24 14202.38 4287751147
-3062.4399 10708.72 14221.06 4287751147
-3055.05 10717.86 14210.04 4287751147
-3046.6399 10719.54 14210.57 4287751147
-3034.6399 10708.56 14209.74 4287751147
-3031.6599 10725.46 14211.22 4287751147
-3019.9299 10711.42 14206.77 4287751147
-3003.48 10719.95 14211.58 4287751147
-2994.1699 10714.37 14204.29 4287751147
-2992.5901 10732.52 14206.42 4287751147
-2983.8999 10737.18 14210.57 4287751147
-2974.1499 10733.99 14203.33 4287751147
-2966.8799 10739.77 14212.18 4287751147
-2958.6599 10738.07 14207.3 4287751147
-2952.3101 10743.22 14208.67 4287751147
-2943.28 10742.61 14209.09 4287751147
-2936.25 10749.28 14209.32 4287751147
-2925.53 10738.38 14196.52 4287751147
-2921.8999 10753.51 14211.11 4287751147
-2914.1899 10753.62 14208.67 4287751147
-2905.9399 10755.85 14208.67 4287751147
-2896.8301 10754.92 14207.3 4287751147
-2889.4399 10756.2 14207.83 4287751147
-2882.73 10755.88 14209.44 4287751147
-2874.4099 10757.85 14207.72 4287751147
-2865.46 10757.42 14209.86 4287751147
-2855.5901 10753.53 14203.23 4287751147
-2848.2 10754.8 14203.75 4287751147
-2841.9299 10756.13 14201.97 4287751147
-2833.8501 10763.17 14208.03 4287751147
-2823.6699 10762.22 14204.94 4287751147
-2817.52 10772.44 14209.97 4287751147
-2811.1599 10773.4 14210.51 4287751147
-2802.75 10770.75 14204.53 4287751147
-2794.3799 10772.47 14206.77 4287751147
-2786.02 10778.52 14211.58 4287751147
-2780.6001 10787.41 14203.98 4287751147
-2765.8899 10790.24 14202.8 4287751147
-3065.25 10718.55 14213.04 4287751147
-3039.48 10725.63 14211.33 4287751147
-3026.04 10733.09 14214.42 4287751147
-3015.77 10728.16 14204.82 4287751147
-3006.51 10730.75 14204.82 4287751147
-2998.6699 10734.48 14209.5 4287751147
-2980.3999 10756.57 14212.15 4287751147
-2969.8501 10750.51 14205.34 4287751147
-2962.8799 10753.39 14206.52 4287751147
-2956.26 10757.59 14206.63 4287751147
-2946.98 10756.1 14205.88 4287751147
-2941.1899 10767.36 14212.15 4287751147
-2931.6899 10760.98 14205.34 4287751147
-2924.5801 10763.37 14203.09 4287751147
-2918.8301 10770.75 14210.25 4287751147
-2910.3201 10772.09 14209.07 4287751147
-2900.97 10770.26 14206.52 4287751147
-2894.54 10775.19 14211.86 4287751147
-2885.5601 10770.62 14207.48 4287751147
-2878.45 10772.97 14205.24 4287751147
-2869.55 10772.78 14209.09 4287751147
-2859.8899 10769.74 14203.56 4287751147
-2846.6399 10778.16 14209.61 4287751147
-2837.6499 10777.6 14206 4287751147
-2828.8899 10782.13 14210.15 4287751147
-2820.5901 10784.17 14204.4 4287751147
-2814.1299 10789.05 14209.74 4287751147
-2806.75 10786.12 14203.76 4287751147
-2797.6599 10785.11 14202.38 4287751147
-2789.77 10793.02 14209.61 4287751147
-2784.8 10803.7 14204.38 4287751147
-2773.53 10789.94 14203.45 4287751147
-2770.52 10808.32 14205.56 4287751147
-2942.8899 10773.58 14199.33 4287751147
-2935.5601 10779.28 14208.09 4287751147
-2929.72 10782.29 14207.02 4287751147
-2922.24 10783.36 14205.84 4287751147
-2913.73 10784.7 14204.66 4287751147
-2904.1201 10781.97 14200.94 4287751147
-2896.95 10784.16 14202.65 4287751147
-2882.78 10789.17 14205.55 4287751147
-2873.3899 10787.2 14207.04 4287751147
-2864.8799 10788.5 14205.86 4287751147
-2855.7 10787.29 14202.77 4287751147
-2850.21 10791.68 14206.39 4287751147
-2842.1101 10794.52 14205.86 4287751147
-2831.96 10793.8 14204.49 4287751147
-2826.04 10804.99 14210.77 4287751147
-2817.6599 10802.58 14206.51 4287751147
-2811.45 10804.2 14206.51 4287751147
-2803.3101 10806.9 14210.01 4287751147
-2793.04 10805.66 14205.21 4287751147
-2789.6299 10822.45 14206.59 4287751147
-2777.95 10807.12 14205.03 4287751147
-2774.9299 10825.52 14207.13 4287751147
-2909.96 10803.66 14208.46 4287751147
-2900.28 10800.69 14203.03 4287751147
-2894.51 10804.02 14209.43 4287751147
-2886.8799 10804.53 14204.74 4287751147
-2877.96 10804.36 14208.59 4287751147
-2867.8999 10804.09 14204.98 4287751147
-2860.97 10807.2 14207.95 4287751147
-2853.0601 10802.45 14199.54 4287751147
-2846.3899 10810.8 14206.24 4287751147
-2837.1799 10813.72 14209.67 4287751147
-2829.3401 10817.63 14206.35 4287751147
-2821.6001 10817.67 14203.92 4287751147
-2816.1599 10822.28 14209.25 4287751147
-2807.52 10823.13 14210.31 4287751147
-2797.48 10822.85 14206.77 4287751147
-2793.8301 10838.75 14206.95 4287751147
-2786.3301 10839.72 14205.77 4287751147
-2779.3401 10842.73 14208.67 4287751147
-2898.79 10819.99 14207.99 4287751147
-2891.71 10822.59 14207.45 4287751147
-2882.71 10822.18 14209.59 4287751147
-2873.4299 10824.9 14211.31 4287751147
-2864.3101 10819.83 14203.52 4287751147
-2858.3201 10822.37 14204.7 4287751147
-2851.6201 10830.67 14211.31 4287751147
-2841.1399 10828.81 14207.06 4287751147
-2834.01 10835.47 14207.35 4287751147
-2825.6101 10833.06 14203.1 4287751147
-2818.6699 10831.92 14199.49 4287751147
-2802.0901 10840.71 14207.78 4287751147
-2796.99 10855.33 14207.3 4287751147
-2783.3601 10862.73 14212.09 4287751147
-2805.8301 10855.16 14205.69 4287751147
