# .PCD v0.7 - Point Cloud Data file format
VERSION 0.7
FIELDS x y z rgb
SIZE 4 4 4 4
TYPE F F F U
COUNT 1 1 1 1
WIDTH 462
HEIGHT 1
VIEWPOINT 0 0 0 1 0 0 0
POINTS 462
DATA ascii
-636.12 7262.5098 14208.99 4290364980
-619.34998 7263.3301 14214.48 4290364980
-636.71002 7269.23 14196.98 4290364980
-631.25 7271.0801 14199.65 4290364980
-625.44 7268.79 14195.91 4290364980
-619.91998 7270 14200.7 4290364980
-614.34998 7270.54 14205.84 4290364980
-599.03998 7280.77 14209.8 4290364980
-594.03998 7279.75 14203.68 4290364980
-641.40997 7274.8198 14181.87 4290364980
-631.08002 7277.1602 14186.31 4290364980
-626.37 7279.6802 14192.08 4290364980
-615.09003 7279.3101 14197.83 4290364980
-610.96002 7280.3999 14204.31 4290364980
-604.45001 7278.2002 14200.66 4290364980
-599.65002 7288.1602 14197.44 4290364980
-590.15002 7292.4302 14205.88 4290364980
-585.14001 7291.3999 14199.75 4290364980
-578.84998 7291.8999 14199.75 4290364980
-569.22998 7294.77 14203.84 4290364980
-564.67999 7290.4702 14218.27 4290364980
-559.44 7295.5298 14205.53 4290364980
-653.41998 7283.3101 14176.97 4290364980
-646.76001 7279.6699 14168.79 4290364980
-637.94 7283.25 14174.21 4290364980
-626.95001 7286.3301 14179.98 4290364980
-620.42999 7284.1602 14178.01 4290364980
-615.53998 7284.6401 14183.15 4290364980
-611.22998 7283.6401 14185.54 4290364980
-605.5 7290.8599 14175.21 4290364980
-599.79999 7289.9702 14175.91 4290364980
-594.44 7293.21 14179.65 4290364980
-590.52002 7297.0298 14188.09 4290364980
-585.57001 7296.73 14185.07 4290364980
-579.38 7298.6001 14187.74 4290364980
-574.87 7303.8799 14195.56 4290364980
-569.15997 7302.8999 14194.49 4290364980
-560.21997 7305.7202 14200.26 4290364980
-554.62 7306.21 14205.41 4290364980
-548.96997 7306.02 14209.21 4290364980
-543.96997 7305.0298 14211.6 4290364980
-539.56 7302.6201 14211.32 4290364980
-534.06 7314.02 14212.53 4290364980
-654.08002 7290.6699 14166.29 4290364980
-647.72998 7290.4902 14163.18 4290364980
-643.02002 7293.0298 14167.27 4290364980
-638.95001 7294.8101 14170.02 4290364980
-632.71002 7296.0498 14171.35 4290364980
-627.17999 7297.29 14176.14 4290364980
-621.28998 7294.3101 14172.75 4290364980
-616.04999 7290.5898 14169.72 4290364980
-611.79999 7290.3301 14173.53 4290364980
-606.34998 7301.02 14169.95 4290364980
-600.81 7302.23 14174.74 4290364980
-595.32001 7304.0498 14175.72 4290364980
-591.06 7303.71 14176.07 4290364980
-586.04999 7302.6802 14171.63 4290364980
-579.96997 7305.98 14177.05 4290364980
-574.41998 7307.1001 14176.7 4290364980
-569.46002 7306.7998 14177.05 4290364980
-566.34003 7311.9702 14184.87 4290364980
-560.14001 7313.8398 14189.22 4290364980
-554.81 7308.6899 14183.53 4290364980
-549.53003 7313.4199 14198.52 4290364980
-540.26001 7312.1201 14204.72 4290364980
-528.39001 7313.6802 14206.05 4290364980
-517.91998 7315.1001 14204.01 4290364980
-633.53998 7305.52 14164.75 4290364980
-627.69 7303.23 14162.7 4290364980
-622.09998 7303.7798 14166.15 4290364980
-617.08002 7302.8398 14166.86 4290364980
-612.59003 7299.7402 14165.16 4290364980
-606.5 7311.23 14164.68 4290364980
-601.76001 7313.7598 14172.13 4290364980
-595.91998 7311.4102 14165.03 4290364980
-591.94 7314.5601 14172.13 4290364980
-586.97998 7314.2598 14169.11 4290364980
-580.60999 7314.02 14166.01 4290364980
-575.33002 7318.6802 14174.18 4290364980
-570.09003 7314.8599 14167.69 4290364980
-566.15002 7318.6602 14172.76 4290364980
-560.48999 7318.4102 14173.11 4290364980
-555.41998 7316.77 14174.16 4290364980
-549.82001 7317.27 14180.99 4290364980
-544.15997 7317.0698 14184.8 4290364980
-540.59998 7316.6699 14188.52 4290364980
-534.66998 7322.4702 14178.88 4290364980
-523.69 7326.75 14182.26 4290364980
-640.35999 7310.8999 14151.3 4290364980
-622.84003 7312.5 14158.13 4290364980
-618.17999 7315.7798 14167 4290364980
-613.09003 7314.1602 14168.06 4290364980
-602.25 7319.7402 14158.77 4290364980
-596.79999 7322.25 14161.08 4290364980
-592.65002 7323.3398 14164.19 4290364980
-587.96002 7326.4702 14166.15 4290364980
-581.64001 7326.9702 14166.15 4290364980
-576.07001 7328.1001 14167.48 4290364980
-571.03998 7327.1099 14164.81 4290364980
-561.27002 7328.5698 14167.83 4290364980
-555.44 7326.29 14167.55 4290364980
-550.53003 7326.75 14174.37 4290364980
-544.59998 7323.02 14171.35 4290364980
-540.39001 7323.4102 14176.49 4290364980
-535.40997 7332.6299 14171.91 4290364980
-528.65997 7327.0801 14181.91 4290364980
-514.19 7332.29 14186.62 4290364980
-502.57999 7338.0898 14199.58 4290364980
-460.89001 7349.1802 14209 4290364980
-613.59003 7320.0898 14154.61 4290364980
-607.39001 7322.0498 14159.05 4290364980
-588.48999 7333.1201 14154.11 4290364980
-582.15997 7333.6299 14154.11 4290364980
-571.78003 7336.5698 14158.19 4290364980
-566.94 7328.8101 14165.79 4290364980
-562.09998 7339.46 14163.96 4290364980
-556.41998 7339.25 14167.67 4290364980
-551.19 7335.5298 14166.43 4290364980
-545.51001 7335.29 14170.15 4290364980
-541.14001 7333.5601 14169.52 4290364980
-535.46002 7342.8398 14166.62 4290364980
-529.14001 7333.75 14169.88 4290364980
-524.40997 7336.9102 14175.29 4290364980
-519.44 7336.5 14170.5 4290364980
-514.60999 7338.2798 14173.25 4290364980
-508.51999 7342.1401 14176.54 4290364980
-493.39999 7348.6099 14172.04 4290364980
-487.85001 7350.4102 14174.79 4290364980
-460.54999 7355.1899 14195.53 4290364980
-449.48001 7359.3701 14200.59 4290364980
-556.87 7345.2202 14154.31 4290364980
-551.34998 7347.1099 14162.11 4290364980
-546.21997 7344.75 14161.84 4290364980
-541.89001 7343.7202 14164.23 4290364980
-536.25 7353.7002 14162.65 4290364980
-530.81 7356.8799 14164.7 4290364980
-525.16998 7357.29 14164.7 4290364980
-519.54999 7348.0801 14166.18 4290364980
-515.41998 7349.8198 14170.62 4290364980
-509.22 7352.3101 14171.24 4290364980
-497.89999 7352.46 14173.37 4290364980
-494.12 7359.4502 14166.38 4290364980
-488.39001 7358.4702 14165.4 4290364980
-482.66 7357.5 14167.79 4290364980
-471.20001 7355.5298 14170.89 4290364980
-466.39999 7357.9702 14176.66 4290364980
-460.92999 7361.1802 14182.16 4290364980
-455.41 7363.6099 14186.15 4290364980
-449.97 7367.2598 14177.55 4290364980
-444.35999 7368.3398 14178.97 4290364980
-440.04999 7367.3301 14186.51 4290364980
-422.78 7375.25 14189.79 4290364980
-546.76001 7352.0898 14151.13 4290364980
-536.73999 7360.3501 14150.6 4290364980
-525.53998 7362.5098 14149.9 4290364980
-520.32001 7358.98 14162.3 4290364980
-516.09003 7359.29 14163.99 4290364980
-509.73001 7359.6602 14160.53 4290364980
-504.09 7360.1401 14165.67 4290364980
-498.45001 7360.5098 14163.99 4290364980
-489.29001 7372.1201 14165.15 4290364980
-483.42001 7369.0898 14165.23 4290364980
-472.29001 7372.5498 14165.5 4290364980
-467.13 7369.5601 14172.42 4290364980
-461.51999 7370.6201 14175.43 4290364980
-455.69 7368.1602 14170.02 4290364980
-449.45999 7370.6001 14170.64 4290364980
-439.78 7374.73 14175.79 4290364980
-434.87 7375.7202 14177.12 4290364980
-427.82999 7376.7402 14173.3 4290364980
-422.89001 7377.1201 14180.13 4290364980
-418.20999 7382.1602 14177.65 4290364980
-413.23001 7382.0298 14196.8 4290364980
-407.41 7379.54 14191.39 4290364980
-401.48999 7388.0298 14185.45 4290364980
-395.75 7386.9902 14187.85 4290364980
-391.60999 7389.3398 14191.92 4290364980
-386.12 7393.1602 14200.35 4290364980
-380.48999 7394.1099 14196.62 4290364980
-374.78 7393.71 14195.29 4290364980
-531.44 7365.5898 14154.96 4290364980
-520.89001 7367.0098 14152.92 4290364980
-499.13 7370.6699 14158.68 4290364980
-495.35001 7377.6602 14151.68 4290364980
-489.64001 7377.3398 14150.35 4290364980
-483.98999 7377.8198 14157.17 4290364980
-472.72 7379.3501 14165.33 4290364980
-467.85001 7380.9199 14157.79 4290364980
-462.35999 7384.0898 14163.2 4290364980
-455.75 7380.4902 14168.79 4290364980
-445.29999 7383.9302 14170.83 4290364980
-440.42999 7385.5898 14170.12 4290364980
-434.76001 7385.9399 14171.8 4290364980
-428.47 7387.6499 14169.41 4290364980
-423.54999 7388.73 14177.56 4290364980
-418.44 7386.21 14173.84 4290364980
-413.37 7384.4702 14176.59 4290364980
-407.78 7386.21 14179.34 4290364980
-401.73001 7392.5698 14169.31 4290364980
-396.14001 7394.3398 14175.43 4290364980
-391.88 7394.5801 14177.12 4290364980
-386.32001 7397.02 14182.88 4290364980
-375.19 7401.77 14185.89 4290364980
-369.44 7400.5801 14179.78 4290364980
-354.20001 7409.1602 14198.03 4290364980
-349.16 7407.9502 14193.6 4290364980
-504.64001 7378.3701 14150.97 4290364980
-499.67999 7378.6802 14147.6 4290364980
-484.56 7386.52 14147.42 4290364980
-478.04999 7384.9102 14148.49 4290364980
-472.53 7387.48 14156.02 4290364980
-468.10999 7384.9399 14152.3 4290364980
-462.66 7388.8101 14159.04 4290364980
-456.62 7394.6499 14157.88 4290364980
-450.73999 7391.6699 14161.43 4290364980
-445.82999 7392.6699 14162.76 4290364980
-435.44 7397.48 14167.45 4290364980
-429.22 7400.6401 14169.49 4290364980
-423.14001 7394 14162.76 4290364980
-418.97 7395.6899 14167.19 4290364980
-413.89999 7393.9302 14168.25 4290364980
-408.31 7395.7002 14172.69 4290364980
-402.39999 7404.8701 14168.06 4290364980
-396.60999 7403.0801 14167.36 4290364980
-391.60999 7402.6699 14167.71 4290364980
-386.70999 7404.3799 14172.14 4290364980
-381.13 7406.71 14171.08 4290364980
-375.53 7408.4399 14173.82 4290364980
-365.39001 7404.9902 14186.16 4290364980
-360.35001 7403.7798 14181.73 4290364980
-354.32001 7411.5601 14176.13 4290364980
-349.41 7413.23 14178.87 4290364980
-344.41 7412.8901 14186.06 4290364980
-340.38 7418.0498 14197.22 4290364980
-333.97 7418.25 14192.08 4290364980
-323.57001 7424.9702 14197.39 4290364980
-318.47 7422.3599 14191.98 4290364980
-473.09 7396.2002 14147.95 4290364980
-468.75 7395.1001 14146.98 4290364980
-463.20999 7397.5801 14151.05 4290364980
-456.78 7397.2998 14151.41 4290364980
-446.44 7402.8301 14157.43 4290364980
-441.47 7403.0498 14153.97 4290364980
-429.64999 7407.9902 14158.75 4290364980
-423.76999 7404.8599 14158.76 4290364980
-418.92001 7407.27 14162.83 4290364980
-414.59 7406.23 14167 4290364980
-408.04001 7403.79 14163.27 4290364980
-403.03 7416.4199 14163.7 4290364980
-397.20001 7413.9902 14163.44 4290364980
-392.19 7413.5801 14163.79 4290364980
-380.98999 7417.6201 14167.07 4290364980
-375.41 7420.02 14169.46 4290364980
-369.91 7410.02 14171.34 4290364980
-365.57999 7408.8398 14168.68 4290364980
-360.81 7413.27 14175.06 4290364980
-354.67001 7418.9102 14165.38 4290364980
-349.82001 7421.9702 14170.79 4290364980
-344.75 7420.1802 14173.54 4290364980
-339.70999 7419.0498 14174.25 4290364980
-334.09 7420.8599 14183.83 4290364980
-328.39999 7421.2202 14188.97 4290364980
-318.76001 7429.02 14179.91 4290364980
-314.34 7426.02 14195.35 4290364980
-307.42001 7430.96 14184.34 4290364980
-442.16 7414.6401 14151.38 4290364980
-414.32999 7414.3198 14157.58 4290364980
-408.67999 7415.3301 14158.91 4290364980
-402.75 7424.4902 14154.28 4290364980
-397.66 7422.7202 14155.35 4290364980
-392.67999 7423 14157.04 4290364980
-387.73001 7424.0098 14158.45 4290364980
-366.69 7431.3198 14162.07 4290364980
-361.34 7424.1602 14171.04 4290364980
-355.32001 7432.6099 14166.77 4290364980
-349.62 7432.8799 14166.77 4290364980
-344.41 7428.2998 14164.21 4290364980
-340.17001 7429.23 14168.91 4290364980
-334.23001 7423.9399 14164.94 4290364980
-329.07999 7436.6201 14168.8 4290364980
-324.12 7437.54 14170.13 4290364980
-319.10001 7437.0698 14170.48 4290364980
-313.76001 7429.1602 14176.45 4290364980
-307.72 7438.25 14171.81 4290364980
-302.01999 7438.6001 14178.64 4290364980
-296.35001 7439.5698 14180.06 4290364980
-292.10001 7440.6299 14191.68 4290364980
-287.01999 7438.7202 14190.97 4290364980
-280.76001 7443.0298 14187.14 4290364980
-269.51001 7448.3398 14193.16 4290364980
-381.89001 7435.1001 14149.29 4290364980
-367.01001 7437.9102 14149.9 4290364980
-355.73999 7441.3799 14158.76 4290364980
-350.07001 7442.3501 14160.09 4290364980
-344.95001 7439.8701 14161.52 4290364980
-340.67001 7440.1499 14164.98 4290364980
-334.84 7437.6899 14166.41 4290364980
-324.60001 7448.4102 14166.1 4290364980
-319.45001 7445.1099 14161.06 4290364980
-314.42001 7444.7598 14168.24 4290364980
-308.14001 7448.4302 14166.45 4290364980
-302.07001 7439.8301 14169.41 4290364980
-296.48001 7442.8901 14174.81 4290364980
-292.10999 7440.8701 14167.38 4290364980
-287.17001 7442.5298 14171.8 4290364980
-280.85001 7445.6401 14178.88 4290364980
-275.37 7451.9399 14173.98 4290364980
-269.67999 7452.8599 14177 4290364980
-265.26999 7449.6001 14177.1 4290364980
-259.66 7452.7402 14187.65 4290364980
-253.97 7453.6499 14190.66 4290364980
-248.46001 7460.0601 14192.58 4290364980
-362.19 7441.6699 14154.94 4290364980
-356.09 7448.71 14148 4290364980
-350.45001 7450.3599 14148.97 4290364980
-345.39001 7449.3398 14154.83 4290364980
-341.01001 7447.48 14154.22 4290364980
-329.73999 7451.52 14159.26 4290364980
-319.88 7455.2798 14155.7 4290364980
-314.64999 7450.2002 14165.38 4290364980
-308.56 7458.6001 14161.09 4290364980
-302.57001 7452.1401 14168.12 4290364980
-296.91 7453.75 14169.09 4290364980
-292.64001 7454.5898 14168.74 4290364980
-287.56 7452.7202 14166.44 4290364980
-275.72 7461.3599 14165.52 4290364980
-269.94 7460.21 14166.23 4290364980
-265.57999 7458.3398 14168.99 4290364980
-248.52 7461.9902 14184.68 4290364980
-242.82001 7462.8599 14184.32 4290364980
-225.86 7470.3301 14189.26 4290364980
-220.8 7469.0601 14184.92 4290364980
-215.87 7472.0698 14192 4290364980
-210.22 7474.9902 14193.94 4290364980
-362.79001 7453.98 14153.65 4290364980
-345.73001 7456.6602 14144.07 4290364980
-335.63 7455.1401 14148.51 4290364980
-329.95001 7456.2002 14154.98 4290364980
-324.34 7459.0898 14148.5 4290364980
-319.57001 7464.7798 14149 4290364980
-314.98999 7458.27 14156.04 4290364980
-308.81 7464.5298 14147.67 4290364980
-303.07001 7464.3999 14165.05 4290364980
-297.23001 7461.7798 14159.66 4290364980
-287.98001 7463.5898 14162.4 4290364980
-281.54001 7463.8599 14164.08 4290364980
-276.20001 7474.3799 14165.54 4290364980
-270.41 7473.23 14166.26 4290364980
-260.26999 7470.29 14171.5 4290364980
-254.52 7469.7998 14171.86 4290364980
-248.02 7468.6001 14170.81 4290364980
-243.00999 7468.7402 14169.12 4290364980
-226.02 7475.5801 14174.5 4290364980
-220.34 7477.8301 14176.8 4290364980
-216 7476.5698 14175.83 4290364980
-210.35001 7479.5 14177.77 4290364980
-204.69 7482.6299 14189.99 4290364980
-193.3 7486.21 14181.36 4290364980
-188.35001 7489.1899 14186.76 4290364980
-303.34 7471.02 14152.96 4290364980
-297.69 7473.3999 14157.02 4290364980
-293.29999 7471.3999 14151.27 4290364980
-287.70999 7475.2002 14159.68 4290364980
-281.84 7471.8901 14154.64 4290364980
-276.48999 7482.4102 14156.09 4290364980
-270.78 7483.4102 14160.88 4290364980
-254.82001 7478.54 14163.75 4290364980
-243.37 7479.6201 14165.07 4290364980
-231.98 7482.7598 14165.42 4290364980
-226.32001 7485.7598 14169.12 4290364980
-220.53999 7484.46 14164.7 4290364980
-204.8 7486.4399 14172.49 4290364980
-198.32001 7485.9502 14174.53 4290364980
-193.5 7494.23 14170.22 4290364980
-188.49001 7495.1299 14173.32 4290364980
-177.05 7497.6899 14184.22 4290364980
-161.28999 7500.8101 14186.15 4290364980
-303.69 7479.79 14144.93 4290364980
-287.91 7480.4102 14144.93 4290364980
-282.20001 7481.3501 14147.94 4290364980
-276.12 7491.8999 14149.38 4290364980
-270.97 7488.5498 14144.35 4290364980
-266.64001 7488.1401 14149.85 4290364980
-260.16 7487.75 14153.58 4290364980
-255.06 7485.8599 14152.97 4290364980
-248.7 7488.9502 14160.05 4290364980
-243.72 7490.5498 14161.1 4290364980
-238.92999 7498.0698 14153.69 4290364980
-232.34 7494.3501 14162.67 4290364980
-226.64999 7496.6499 14165.06 4290364980
-216.59 7496.9399 14165.06 4290364980
-210.92 7499.8701 14166.99 4290364980
-205.03999 7495.2202 14164.45 4290364980
-198.64 7498.29 14173.21 4290364980
-193.05 7504.4302 14164.83 4290364980
-188.71001 7503.8599 14165.19 4290364980
-182.94 7503.4199 14169.01 4290364980
-177.17 7502.8701 14169.37 4290364980
-171.39999 7502.2402 14166.27 4290364980
-165.71001 7505.3101 14175.12 4290364980
-161.39 7505.27 14168.29 4290364980
-154.96001 7507.6299 14177.41 4290364980
-282.60999 7492.2002 14142.19 4290364980
-271.34 7498.71 14138.96 4290364980
-266.92999 7496.1499 14140.4 4290364980
-260.48999 7497.2202 14146.86 4290364980
-255.34 7493.8799 14143.52 4290364980
-248.87 7494.1699 14145.29 4290364980
-243.25999 7498.5898 14151.64 4290364980
-239.28 7508.9502 14149.62 4290364980
-226.87 7503.8999 14152.5 4290364980
-221.14 7504.75 14152.14 4290364980
-216.89 7507.1401 14159.66 4290364980
-211.17 7508.6401 14158.94 4290364980
-205.37 7507.5098 14163.03 4290364980
-198.88 7507.0698 14165.16 4290364980
-193.27 7513.2002 14156.78 4290364980
-183.17999 7512.8999 14162.29 4290364980
-177.45 7514.46 14166.62 4290364980
-171.64999 7513.1001 14160.51 4290364980
-165.94 7515.48 14168.03 4290364980
-161.62 7516.1602 14164.21 4290364980
-155.16 7517.0898 14169 4290364980
-149.42 7518.54 14166.59 4290364980
-249.28 7506.4399 14143.87 4290364980
-243.57001 7508.0601 14144.92 4290364980
-232.86 7511.1099 14143.48 4290364980
-227.14 7512.6699 14144.44 4290364980
-221.37 7512.7998 14142.77 4290364980
-217.08 7513.7002 14147.45 4290364980
-211.33 7514.5 14145.42 4290364980
-205.64999 7517.6802 14157.63 4290364980
-199.13 7516.5 14158.35 4290364980
-193.59 7525.54 14155.43 4290364980
-189.23 7524.1899 14152.7 4290364980
-183.44 7523.7798 14158.2 4290364980
-177.71001 7525.3901 14162.63 4290364980
-171.24001 7526.8999 14161.9 4290364980
-161.78999 7524.1802 14154.74 4290364980
-155.35001 7526.5698 14162.26 4290364980
-149.63 7529.4302 14162.5 4290364980
-143.82001 7528.1602 14161.54 4290364980
-216.67 7524.5601 14141.68 4290364980
-210.91 7525.3701 14139.65 4290364980
-205.85001 7524.9702 14145.14 4290364980
-199.34 7524.4902 14147.19 4290364980
-193.72 7530.6802 14140.57 4290364980
-189.45 7532.9502 14144.63 4290364980
-182.88 7530.3999 14146.08 4290364980
-177.86 7531.9502 14150.41 4290364980
-171.42 7534.9199 14152.43 4290364980
-162.06 7536.5098 14153.39 4290364980
-155.56 7536.75 14156.85 4290364980
-149.82001 7538.8999 14155.76 4290364980
-144.07001 7541.1299 14159.73 4290364980
-199.53 7531.79 14136.39 4290364980
-178.10001 7542.1401 14144.99 4290364980
-155.71001 7544.0498 14146.04 4290364980
-150.00999 7548.2998 14147.24 4290364980
-134.86 7551.5801 14157.77 4290364980
-134.99001 7558.8501 14145.27 4290364980
-129.24001 7561.73 14147.19 4290364980
