# .PCD v0.7 - Point Cloud Data file format
VERSION 0.7
FIELDS x y z rgb
SIZE 4 4 4 4
TYPE F F F U
COUNT 1 1 1 1
WIDTH 240
HEIGHT 1
VIEWPOINT 0 0 0 1 0 0 0
POINTS 240
DATA ascii
-1810.58 8711.96 14210.64 4290173740
-1804.48 8711.9502 14213.2 4290173740
-1793.13 8716.0898 14217.52 4290173740
-1806.0699 8719.6104 14202.98 4290173740
-1801.12 8721.04 14199.07 4290173740
-1780.59 8722.9004 14205.96 4290173740
-1836.05 8708.7197 14171.59 4290173740
-1830.9301 8709.2402 14173.71 4290173740
-1824.88 8713.6797 14177.18 4290173740
-1812.75 8722.4297 14182.34 4290173740
-1806.8199 8723.2598 14186.25 4290173740
-1765.6 8739.21 14208.54 4290173740
-1758.72 8739.6699 14205.57 4290173740
-1751.99 8740.9004 14203.88 4290173740
-1727.34 8752.8203 14210.3 4290173740
-1845.37 8719.7998 14170.77 4290173740
-1838.15 8718.6904 14165.19 4290173740
-1833.53 8721.5996 14171.2 4290173740
-1826.98 8723.6699 14170.77 4290173740
-1819.8101 8722.79 14168.57 4290173740
-1808.39 8730.8604 14175.93 4290173740
-1803.9399 8734.6699 14175.93 4290173740
-1796.37 8731.8301 14175.09 4290173740
-1783.35 8736.4297 14181.11 4290173740
-1771.49 8738.1396 14181.54 4290173740
-1747.98 8747 14187.97 4290173740
-1742.33 8753.6396 14193.55 4290173740
-1734.91 8755.8096 14193.12 4290173740
-1728.34 8757.9199 14194.39 4290173740
-1717.99 8762.9902 14205.17 4290173740
-1704.86 8771.6699 14199.62 4290173740
-1687.72 8777.8301 14208.61 4290173740
-1673.3199 8780.0801 14210.81 4290173740
-1661.54 8787 14215.12 4290173740
-1861.15 8728.2402 14163.51 4290173740
-1854.11 8728.04 14160.89 4290173740
-1847.4399 8729.5996 14162.58 4290173740
-1841.5699 8734.9004 14167.4 4290173740
-1829.5699 8736.04 14168.25 4290173740
-1823.22 8739.1299 14172.49 4290173740
-1816.08 8738.4199 14163.08 4290173740
-1810.46 8740.8398 14169.52 4290173740
-1806.99 8749.4502 14177.3 4290173740
-1797.91 8743.5498 14171.22 4290173740
-1790.4399 8741.1904 14168.18 4290173740
-1785.0601 8744.79 14172.07 4290173740
-1779.05 8745.3203 14172.5 4290173740
-1773.8101 8749.5801 14175.97 4290173740
-1766.89 8745.5898 14172.09 4290173740
-1759.8199 8749.5098 14175.98 4290173740
-1749.3199 8753.7002 14174.7 4290173740
-1742.89 8756.4902 14175.54 4290173740
-1736.08 8761.7305 14178.57 4290173740
-1728.91 8760.7695 14176.38 4290173740
-1722.92 8761.3799 14178.5 4290173740
-1712.67 8771.4199 14197.06 4290173740
-1706.1899 8778.4902 14188.03 4290173740
-1698.26 8773.6396 14199.19 4290173740
-1680.36 8780.4004 14186.26 4290173740
-1674.59 8786.7598 14197.43 4290173740
-1667.49 8786.1699 14191.43 4290173740
-1662.99 8794.6299 14204.8 4290173740
-1657.03 8795.46 14201.32 4290173740
-1649.62 8797.8398 14204.37 4290173740
-1642.3 8800.7197 14205.21 4290173740
-1636.59 8802.8896 14209.96 4290173740
-1830.48 8744.5703 14159.21 4290173740
-1818.3101 8749.1904 14157.92 4290173740
-1812.1899 8749.1904 14160.48 4290173740
-1806.87 8753.0596 14158.77 4290173740
-1799.9399 8753.4102 14163.1 4290173740
-1793.61 8756.6396 14169.12 4290173740
-1787.59 8757.1797 14169.54 4290173740
-1781.87 8759.1602 14170.81 4290173740
-1775.34 8757.1699 14165.65 4290173740
-1769.39 8757.9805 14169.56 4290173740
-1762.91 8764.8301 14166.13 4290173740
-1745.36 8768.8896 14173.01 4290173740
-1737.58 8769.3203 14168.26 4290173740
-1731.35 8773.1797 14173.84 4290173740
-1719.5699 8771.04 14172.94 4290173740
-1713.0601 8773.4199 14177.69 4290173740
-1698.8101 8776.4902 14181.17 4290173740
-1688.25 8785.1602 14173.4 4290173740
-1682.28 8790.4297 14179.82 4290173740
-1674.83 8788.0303 14176.88 4290173740
-1668.95 8793.8398 14181.18 4290173740
-1662.62 8792.6699 14178.98 4290173740
-1656.96 8795.0996 14178.13 4290173740
-1649.83 8798.9404 14182.02 4290173740
-1642.6801 8802.7803 14185.91 4290173740
-1636.6801 8803.3398 14188.03 4290173740
-1630.91 8805.2197 14189.3 4290173740
-1625.4 8808.46 14198.8 4290173740
-1618.53 8813.8496 14205.23 4290173740
-1610.54 8813.1201 14204.82 4290173740
-1592.86 8816.7402 14210 4290173740
-1586.77 8821.6699 14212.95 4290173740
-1537.77 8840.8604 14217.29 4290173740
-1801.16 8759.3496 14150.16 4290173740
-1789.46 8766.3799 14161.85 4290173740
-1784.23 8770.7695 14167 4290173740
-1777.53 8767.9297 14160.49 4290173740
-1772.49 8773.29 14159.7 4290173740
-1763.65 8768.5303 14160.08 4290173740
-1758.54 8773.5703 14164.81 4290173740
-1747.3199 8778.71 14164.79 4290173740
-1733.48 8783.96 14168.68 4290173740
-1727.3 8783.6699 14167.84 4290173740
-1721.02 8782.8203 14169.13 4290173740
-1713.55 8780.3896 14166.1 4290173740
-1707.17 8783.5703 14172.12 4290173740
-1700.9 8787.2803 14176.01 4290173740
-1690.49 8796.79 14169.58 4290173740
-1683.4301 8796.46 14166.96 4290173740
-1676.34 8800.5596 14174.24 4290173740
-1670.24 8800.6602 14169.58 4290173740
-1663.37 8801.2695 14170.01 4290173740
-1658.61 8808.4805 14176.85 4290173740
-1651.4 8807.3398 14172.96 4290173740
-1644.4 8811.96 14178.12 4290173740
-1638.0699 8810.8301 14176.01 4290173740
-1625.0699 8811.4102 14180.69 4290173740
-1618.61 8814.2803 14183.31 4290173740
-1600.67 8821.29 14193.65 4290173740
-1594.1 8823.5898 14198.4 4290173740
-1581.11 8833.9297 14207.85 4290173740
-1575.58 8837.2402 14209.96 4290173740
-1570.36 8837.3896 14199.68 4290173740
-1563.3 8841.9502 14204.84 4290173740
-1544.73 8845.71 14202.63 4290173740
-1531.96 8847.6699 14208.24 4290173740
-1525.78 8852.3398 14216.87 4290173740
-1519.6899 8852.5195 14215.52 4290173740
-1759.74 8779.5703 14151.95 4290173740
-1748.99 8787.1201 14155.82 4290173740
-1741.22 8787.6699 14152.77 4290173740
-1734.51 8789.1797 14154.55 4290173740
-1729.05 8797.0195 14166.56 4290173740
-1723.58 8795.9004 14166.15 4290173740
-1716.28 8794.3701 14166.09 4290173740
-1709.59 8795.9805 14169.57 4290173740
-1702.52 8795.6602 14166.95 4290173740
-1692.5601 8807.5801 14164.4 4290173740
-1686.42 8812.0801 14169.56 4290173740
-1678.41 8811.4102 14169.15 4290173740
-1672.03 8814.7002 14167.86 4290173740
-1666.47 8817.6904 14173.88 4290173740
-1661.25 8822.5098 14176.82 4290173740
-1652.4301 8817.5195 14166.51 4290173740
-1645.67 8818.79 14166.51 4290173740
-1639.63 8819.2197 14166.94 4290173740
-1633.89 8821.2803 14169.99 4290173740
-1626.63 8819.8604 14171.71 4290173740
-1620.6 8825.0996 14178.13 4290173740
-1612.15 8821.9502 14173.84 4290173740
-1606.21 8822.9102 14172.14 4290173740
-1601.33 8824.9102 14176.89 4290173740
-1594.73 8831.8799 14176.84 4290173740
-1588.51 8831.3496 14183.31 4290173740
-1580.89 8832.7197 14183.31 4290173740
-1574.79 8832.8203 14180.26 4290173740
-1563.41 8842.5801 14195.32 4290173740
-1556.96 8845.6396 14201.34 4290173740
-1550.4301 8843.3604 14194.48 4290173740
-1545.22 8848.5596 14184.59 4290173740
-1539.17 8848.9297 14185.02 4290173740
-1526.41 8855.9902 14200.1 4290173740
-1515.46 8858.4102 14206.98 4290173740
-1509.41 8863.96 14209.49 4290173740
-1503.38 8864.4404 14202.61 4290173740
-1736.79 8800.7305 14150.64 4290173740
-1718.1801 8804.1299 14147.24 4290173740
-1711.6801 8806.7695 14164.39 4290173740
-1704.62 8806.5 14161.85 4290173740
-1694.02 8815.1602 14154.07 4290173740
-1687.11 8815.6699 14152.8 4290173740
-1679.54 8817.3604 14156.2 4290173740
-1667.42 8822.7402 14157.95 4290173740
-1661.63 8824.5195 14157.52 4290173740
-1647.84 8830.4297 14162.67 4290173740
-1641.54 8834.2402 14168.25 4290173740
-1636.1899 8833.7197 14167.42 4290173740
-1628.89 8832.1201 14167.36 4290173740
-1622.4399 8835.1201 14171.68 4290173740
-1614.55 8835.0596 14170.84 4290173740
-1608.62 8836.1396 14170.84 4290173740
-1603.58 8837.3096 14174.24 4290173740
-1595.98 8838.8604 14176.02 4290173740
-1589.72 8838.0498 14170.01 4290173740
-1576.3 8841.2695 14171.27 4290173740
-1570.95 8840.7197 14170.44 4290173740
-1563.77 8844.6201 14176.02 4290173740
-1557.03 8846.0498 14179.42 4290173740
-1551.3 8853.2803 14175.54 4290173740
-1541.2 8860.6104 14181.17 4290173740
-1533.75 8858.0195 14178.15 4290173740
-1526.75 8857.9697 14180.71 4290173740
-1519.67 8857.5 14178.1 4290173740
-1515.8 8860.4004 14187.59 4290173740
-1509.76 8866 14190.19 4290173740
-1504.15 8869.0098 14197.9 4290173740
-1706.0699 8813.9502 14149.82 4290173740
-1637.42 8840.3398 14154.02 4290173740
-1630.45 8840.5596 14158.37 4290173740
-1623.26 8844.3799 14162.25 4290173740
-1616.23 8844.29 14163.11 4290173740
-1610.59 8846.96 14165.65 4290173740
-1605.84 8849.7598 14171.66 4290173740
-1597.8 8848.8896 14169.56 4290173740
-1591.39 8852.2402 14169.96 4290173740
-1584.05 8850.3604 14166.51 4290173740
-1578.9399 8856.0996 14172.5 4290173740
-1572.74 8850.75 14163.98 4290173740
-1565.95 8856.9004 14171.66 4290173740
-1558.66 8855.2998 14171.69 4290173740
-1551.85 8856.3701 14169.99 4290173740
-1548.5601 8867.6797 14168.61 4290173740
-1542.95 8870.6504 14174.7 4290173740
-1528.76 8869.6602 14176.87 4290173740
-1522.37 8873.2002 14180.66 4290173740
-1516.95 8867.1104 14174.28 4290173740
-1617.76 8852.6699 14154.03 4290173740
-1611.38 8851.3203 14150.15 4290173740
-1586.54 8864.2803 14164.76 4290173740
-1580.3101 8863.7598 14162.23 4290173740
-1574.52 8865.7305 14165.19 4290173740
-1568.01 8868.5703 14167.81 4290173740
-1554.02 8868.7803 14167.32 4290173740
-1550.3199 8877.71 14162.13 4290173740
-1544.53 8879.7197 14165.18 4290173740
-1505.2 8880.3896 14170.77 4290173740
-1581.78 8872.0098 14151.44 4290173740
-1576.16 8874.96 14157.45 4290173740
-1568.92 8873.7402 14153.57 4290173740
-1532.1899 8889.5596 14162.13 4290173740
-1512.9399 8889.8398 14160.46 4290173740
-1557.24 8887.1396 14150.12 4290173740
-1502.12 8903.6396 14156.5 4290173740
-1492.5699 8920.0098 14150.88 4290173740
