# .PCD v0.7 - Point Cloud Data file format
VERSION 0.7
FIELDS x y z rgb
SIZE 4 4 4 4
TYPE F F F U
COUNT 1 1 1 1
WIDTH 1164
HEIGHT 1
VIEWPOINT 0 0 0 1 0 0 0
POINTS 1164
DATA ascii
-713.67999 7280.0098 14206.58 4294144032
-708.69 7286.6499 14198.37 4294144032
-720.28003 7304.1099 14200.85 4294144032
-715.73999 7301.0098 14195.7 4294144032
-708.29999 7289.8799 14179.51 4294144032
-702.57001 7289 14175.07 4294144032
-721.07001 7312.1099 14189.71 4294144032
-716.12 7304.9102 14178.24 4294144032
-709.76001 7304.9102 14182.05 4294144032
-697.82001 7298.3901 14173.96 4294144032
-733.59998 7331.1001 14206.87 4294144032
-727.40997 7326 14194.28 4294144032
-721.87 7320.2002 14180.43 4294144032
-717.39001 7317.8501 14178.38 4294144032
-710.73999 7315.0601 14176.77 4294144032
-704.65997 7310.7002 14167.27 4294144032
-699.39001 7314.7998 14179.16 4294144032
-693.63 7306.23 14166.64 4294144032
-689.62 7316.2202 14165.17 4294144032
-746.79999 7342.1802 14209.03 4294144032
-741.15002 7342.6899 14205.57 4294144032
-734.26001 7337.73 14194.74 4294144032
-727.87 7330.5698 14178.15 4294144032
-722.94 7331.0298 14176.47 4294144032
-718.38 7328 14173.09 4294144032
-711.79999 7325.8901 14172.82 4294144032
-706.38 7328.4902 14175.13 4294144032
-700.29999 7324.2598 14172.55 4294144032
-694.52002 7315.6802 14160.02 4294144032
-689.54999 7322.9399 14153.13 4294144032
-683.54999 7319.3501 14151.79 4294144032
-752.06 7351.8999 14202.03 4294144032
-747.90002 7353.0298 14205.05 4294144032
-741.96997 7350.7798 14196.26 4294144032
-734.65002 7341.5898 14177.28 4294144032
-729.08002 7342.8101 14175.24 4294144032
-723.87 7340.5 14169.83 4294144032
-719.02002 7341.6802 14172.85 4294144032
-712.78003 7336.0298 14167.52 4294144032
-707.41998 7339.3701 14171.25 4294144032
-700.85999 7330.1699 14159.09 4294144032
-695.69 7327.9199 14158.82 4294144032
-690.57001 7333.77 14149.17 4294144032
-758.83002 7369.2202 14209.84 4294144032
-748.78998 7361.8101 14197.07 4294144032
-741.65002 7354.6602 14178.71 4294144032
-736.09003 7355.96 14180.13 4294144032
-730.44 7356.4502 14176.67 4294144032
-725.08002 7352.71 14168.52 4294144032
-720.48999 7356.75 14177.03 4294144032
-714.10999 7349.6699 14168.96 4294144032
-708.79999 7353.7002 14174.01 4294144032
-702.09998 7343.1099 14159.2 4294144032
-696.97998 7341.5498 14160.26 4294144032
-691.84998 7347.3901 14150.6 4294144032
-760.09003 7381.48 14206.9 4294144032
-754.13 7372.21 14191.39 4294144032
-749.26001 7366.3501 14180.93 4294144032
-742.89001 7366.9199 14177.47 4294144032
-737.16998 7366.7798 14174.46 4294144032
-731.59003 7368.02 14174.1 4294144032
-726.70001 7369.1899 14173.75 4294144032
-720.92999 7361.27 14160.9 4294144032
-715.09003 7359.79 14161.96 4294144032
-709.16998 7357.5298 14156.55 4294144032
-702.75 7357.3398 14148.4 4294144032
-696.96997 7348.9302 14147.87 4294144032
-772.67999 7392.5 14200.49 4294144032
-767.02002 7393.1802 14205.63 4294144032
-760.98999 7390.21 14198.81 4294144032
-754.73999 7378.1201 14177.91 4294144032
-749.58002 7376.5601 14175.6 4294144032
-743.97998 7377.73 14171.79 4294144032
-738.46997 7379.73 14174.53 4294144032
-732.65997 7378.8501 14170.1 4294144032
-722.53998 7377.7202 14167.71 4294144032
-716.21002 7371.3101 14159.3 4294144032
-710.08002 7366.96 14149.91 4294144032
-703.33002 7363.4199 14146.89 4294144032
-698.13 7361.1699 14146.63 4294144032
-774.19 7406.8599 14203.2 4294144032
-768.44 7406.8301 14205.33 4294144032
-761.22998 7392.6099 14178.59 4294144032
-755.34998 7391.1401 14177.97 4294144032
-751.17999 7392.27 14179.3 4294144032
-745.28998 7390.6899 14171.86 4294144032
-739.76001 7392.6899 14174.6 4294144032
-733.88 7391.1099 14168.84 4294144032
-728.14001 7390.9199 14165.74 4294144032
-723.53998 7387.8599 14162.38 4294144032
-716.34998 7380.1201 14151.31 4294144032
-710.54999 7379.2202 14146.88 4294144032
-704.70001 7377.75 14149.63 4294144032
-781.75 7424.1699 14211.03 4294144032
-775.69 7421.27 14205.99 4294144032
-768.60999 7408.48 14183.68 4294144032
-762.5 7404.8701 14177.31 4294144032
-756.96997 7406.9102 14181.74 4294144032
-751.84998 7398.8999 14167.23 4294144032
-746.65997 7404.3398 14173.24 4294144032
-734.23999 7402.0098 14164.83 4294144032
-728.71997 7396.8398 14152.34 4294144032
-724.03998 7393.04 14147.56 4294144032
-717.40002 7390.9399 14147.31 4294144032
-711.59003 7390.04 14142.88 4294144032
-782.52002 7431.5 14200.26 4294144032
-775.71997 7421.5098 14181.68 4294144032
-769.73999 7419.3599 14179.74 4294144032
-763.90002 7418.5298 14178.68 4294144032
-757.78003 7414.9199 14172.31 4294144032
-753.31 7413.29 14170.02 4294144032
-741.15002 7413.73 14165.23 4294144032
-735.25 7412.1299 14157.79 4294144032
-729.98999 7409.79 14152.39 4294144032
-725.23999 7405.27 14144.61 4294144032
-718.65997 7403.8901 14147.36 4294144032
-793.22998 7437.3198 14203.51 4294144032
-787.29999 7435.8198 14201.13 4294144032
-783.73999 7443.0298 14195.85 4294144032
-776.70001 7430.96 14174.98 4294144032
-770.15002 7430.27 14175.7 4294144032
-764.87 7427.96 14170.3 4294144032
-759.03998 7427.1899 14171.02 4294144032
-748.98999 7427.4399 14167.92 4294144032
-741.79999 7420.27 14151.37 4294144032
-736.03998 7420.1201 14148.36 4294144032
-731.34003 7423.4399 14153.76 4294144032
-794.76001 7451.7002 14206.18 4294144032
-788.46002 7446.73 14197.16 4294144032
-778.06 7443.8999 14173.32 4294144032
-771.41998 7442.54 14174.4 4294144032
-766.06 7439.48 14167.59 4294144032
-760.07001 7437.3198 14165.65 4294144032
-755.95001 7439.2202 14170.08 4294144032
-750.02002 7437.5698 14162.55 4294144032
-743.16998 7433.9702 14152.82 4294144032
-737.60999 7435.9102 14153.79 4294144032
-732.40002 7434.2402 14148.03 4294144032
-802.16998 7466.8301 14204.83 4294144032
-795.70001 7460.4702 14198.13 4294144032
-788.63 7448.3701 14175.59 4294144032
-784.63 7451.54 14175.84 4294144032
-778.62 7456.25 14172 4294144032
-772.54999 7453.3799 14170.34 4294144032
-766.69 7452.5698 14167.69 4294144032
-761.90997 7455.2598 14175.12 4294144032
-756.83002 7447.8901 14160.27 4294144032
-750.67999 7451.29 14162.21 4294144032
-744.25 7444.79 14148.77 4294144032
-808.73999 7480.6802 14207.47 4294144032
-802.22998 7474.1802 14193.95 4294144032
-795.95001 7462.8101 14177.88 4294144032
-790.08002 7462.04 14176.92 4294144032
-786.79999 7472.0698 14177.02 4294144032
-779.90002 7468.48 14170.58 4294144032
-774.17999 7469.1699 14174.04 4294144032
-768.15997 7466.9399 14170.34 4294144032
-762.21002 7458.25 14154.53 4294144032
-758.07001 7460.1602 14158.95 4294144032
-751.34003 7457.8799 14150.1 4294144032
-745.33002 7455.6099 14144.71 4294144032
-819.09998 7489.1401 14202.41 4294144032
-810.21997 7494.3799 14208.77 4294144032
-803.32001 7484.2998 14186.85 4294144032
-797.40002 7476.46 14177.51 4294144032
-791.37 7474.25 14173.81 4294144032
-787.21997 7482.98 14172.94 4294144032
-780.96002 7478.6099 14165.18 4294144032
-775.22998 7479.2998 14168.64 4294144032
-769.13 7476.3701 14163.61 4294144032
-763.60999 7471.9199 14155.84 4294144032
-758.09998 7467.5098 14148.17 4294144032
-752.65002 7470.8398 14150.1 4294144032
-820.59998 7502.8501 14203.7 4294144032
-816.42999 7504.73 14204.76 4294144032
-810.31 7495.27 14184.17 4294144032
-804.09998 7491.6001 14176.05 4294144032
-798 7488.8198 14176.16 4294144032
-792.82001 7487.9702 14175.2 4294144032
-788.58002 7495.9302 14171.23 4294144032
-782.31 7491.5898 14165.15 4294144032
-776.35999 7490.1299 14164.55 4294144032
-770.25 7487.1802 14157.84 4294144032
-763.78003 7480.7202 14147.79 4294144032
-759.54999 7481.8799 14150.8 4294144032
-753.95001 7483.8101 14150.08 4294144032
-822.17999 7517.27 14204.7 4294144032
-816.83002 7508.4102 14185.46 4294144032
-811.47998 7506.1099 14180.07 4294144032
-805.88 7508.1802 14182.81 4294144032
-799.38 7501.7998 14176.13 4294144032
-793.17999 7498.1802 14169.78 4294144032
-789.41998 7503.9102 14161.75 4294144032
-783.73999 7505.2402 14164.76 4294144032
-777.26001 7498.8599 14156.49 4294144032
-771.21002 7496.6001 14151.1 4294144032
-765.25 7495.0898 14150.41 4294144032
-829.53003 7531.0498 14207.29 4294144032
-822.58002 7520.9702 14187.08 4294144032
-817.70001 7516.4102 14175.96 4294144032
-812.81 7518.4102 14178.69 4294144032
-806.65997 7515.4302 14171.9 4294144032
-800.60999 7513.3398 14173.35 4294144032
-794.40002 7509.7202 14167 4294144032
-791.09003 7519.75 14167.08 4294144032
-784.88 7516.1201 14160.74 4294144032
-777.94 7505.3799 14144.27 4294144032
-772.40002 7508.1201 14148.33 4294144032
-766.21002 7504.52 14143.66 4294144032
-829.53003 7537.7202 14195.13 4294144032
-823.60999 7530.4102 14180.32 4294144032
-819.20001 7530.1499 14177.31 4294144032
-814.06 7529.9502 14175.9 4294144032
-807.90002 7527.0098 14169.19 4294144032
-801.91998 7525.6201 14171.97 4294144032
-795.70001 7522 14165.63 4294144032
-791.92999 7527.7202 14157.58 4294144032
-785.71002 7524.0898 14151.24 4294144032
-778.84998 7521.25 14147.91 4294144032
-836.84003 7550.8901 14199.84 4294144032
-830.09998 7542.8398 14180.25 4294144032
-824.88 7541.9902 14177.6 4294144032
-819.65002 7541.0601 14173.18 4294144032
-815.08002 7539.3799 14169.12 4294144032
-809.37 7540.6699 14168.76 4294144032
-802.91998 7535.0498 14165.2 4294144032
-796.84003 7532.7998 14159.82 4294144032
-793.21997 7540 14156.19 4294144032
-786.84003 7534.9102 14147.12 4294144032
-845.28003 7567.3901 14204.4 4294144032
-837.01001 7552.4399 14178.25 4294144032
-831.28998 7553.6802 14176.11 4294144032
-826.21997 7554.2402 14176.11 4294144032
-820.90002 7552.6001 14170.37 4294144032
-815.84003 7553.1499 14170.37 4294144032
-810.60999 7552.2598 14166.04 4294144032
-804.53003 7550.1699 14167.49 4294144032
-798.59003 7549.3599 14166.45 4294144032
-787.09998 7544.3999 14140.35 4294144032
-845.53003 7569.6401 14184.12 4294144032
-838.53003 7566.1401 14179.48 4294144032
-832.78998 7567.3599 14175.65 4294144032
-827.71997 7567.9902 14177.42 4294144032
-822.32001 7565.6001 14170.27 4294144032
-817.15997 7565.4102 14167.27 4294144032
-811.53998 7560.9199 14157.84 4294144032
-805.22998 7556.6802 14155.25 4294144032
-798.97998 7553.04 14148.92 4294144032
-795.65002 7563.0801 14148.96 4294144032
-863.38 7597.3701 14208.08 4294144032
-857.65002 7592.3301 14202.49 4294144032
-846.59003 7579.0601 14177.32 4294144032
-839.89001 7578.3599 14176.27 4294144032
-834.15002 7579.6499 14174.22 4294144032
-828.51001 7575.1699 14164.8 4294144032
-823.72998 7578.5698 14168.48 4294144032
-818.48999 7577.7002 14165.84 4294144032
-812.52002 7576.8701 14163.11 4294144032
-806.22998 7566.0898 14148.46 4294144032
-800.34998 7566.0298 14148.82 4294144032
-870.52002 7608.2002 14201.85 4294144032
-864.21002 7604.6401 14197.21 4294144032
-857.41998 7596.8101 14186.25 4294144032
-847.79999 7589.8999 14173.15 4294144032
-841.94 7596.8501 14175 4294144032
-835.26001 7589.7798 14168.74 4294144032
-824.98999 7590.1499 14165.73 4294144032
-819.42999 7586.3701 14157.63 4294144032
-813.29999 7584.1201 14152.26 4294144032
-806.81 7578.4502 14147.03 4294144032
-801.5 7576.8501 14144.67 4294144032
-871.77002 7619.0498 14197.66 4294144032
-864.62 7608.3101 14179.65 4294144032
-858.54999 7606.8599 14178.98 4294144032
-853.38 7606.8398 14181.12 4294144032
-842.60999 7602.96 14173.39 4294144032
-836.77002 7603.4902 14169.93 4294144032
-826.15997 7600.9902 14161.56 4294144032
-820.44 7595.7798 14150.82 4294144032
-814.46002 7594.9399 14148.09 4294144032
-808.39001 7593.25 14137.3 4294144032
-872.09003 7621.9302 14177 4294144032
-865.94 7619.8599 14176.78 4294144032
-859.94 7619.1699 14177.52 4294144032
-854.10999 7613.3301 14168.84 4294144032
-843.73999 7613.0801 14167.89 4294144032
-837.96997 7614.3701 14165.83 4294144032
-826.87 7607.5098 14149.37 4294144032
-821.69 7607.3101 14147.96 4294144032
-815.60999 7605.73 14142.23 4294144032
-891.06 7644.8901 14206.91 4294144032
-880.47998 7636.8999 14201.4 4294144032
-867.5 7633.5801 14177.95 4294144032
-861.40997 7632.1802 14177.36 4294144032
-855.65002 7627.1001 14170.1 4294144032
-845.17999 7626.1001 14167.74 4294144032
-839.39001 7627.2998 14163.91 4294144032
-828.04999 7618.3398 14145.18 4294144032
-823.01001 7619.6001 14146.5 4294144032
-892.5 7657.21 14205.41 4294144032
-886.13 7653.6499 14200.79 4294144032
-880.26001 7641.3599 14185.14 4294144032
-874.73999 7645.0698 14171.31 4294144032
-868.96997 7646.5601 14176.09 4294144032
-862.63 7643.02 14173.16 4294144032
-856.87 7637.9302 14165.9 4294144032
-846.53998 7638.3599 14164.58 4294144032
-839.53998 7635.3701 14154.43 4294144032
-834.16998 7633.75 14150.39 4294144032
-824.26001 7631.1001 14141.94 4294144032
-892.34998 7662.3701 14190.46 4294144032
-886.46002 7656.5298 14181.8 4294144032
-881.96002 7656.1802 14175.33 4294144032
-876.22998 7658.0801 14171.13 4294144032
-870.37 7658.8701 14174.6 4294144032
-863.60999 7651.7202 14164.99 4294144032
-858.72998 7654.5498 14172.4 4294144032
-853.84003 7650.6401 14162.63 4294144032
-846.92999 7648.5601 14159.05 4294144032
-840.65002 7645.48 14148.91 4294144032
-835.42999 7645.29 14147.5 4294144032
-893.35999 7670.9902 14180.5 4294144032
-887.64001 7666.6602 14176.26 4294144032
-882.5 7660.8701 14171.06 4294144032
-877.47998 7668.96 14166.99 4294144032
-870.95001 7670.5098 14171.68 4294144032
-865.40997 7667.6001 14168.47 4294144032
-859.53998 7661.7402 14159.82 4294144032
-855.03998 7661.4399 14156.72 4294144032
-847.79999 7656.5 14149.47 4294144032
-842.23999 7659.9199 14151.37 4294144032
-836.38 7653.9702 14139.33 4294144032
-909.01001 7696.2202 14202.3 4294144032
-901.66998 7684.6299 14181.25 4294144032
-894.35999 7679.6401 14172.23 4294144032
-889.04999 7678.8901 14172.97 4294144032
-884.09003 7674.6001 14172.18 4294144032
-878.96002 7681.8999 14165.02 4294144032
-866.46002 7676.96 14161.52 4294144032
-860.83002 7673.2798 14156.9 4294144032
-855.92999 7669.4102 14147.23 4294144032
-849.32001 7670.2202 14150.6 4294144032
-843.19 7668.6001 14143.19 4294144032
-916.37 7707.8101 14199.07 4294144032
-909.85999 7703.4502 14191.37 4294144032
-902.84998 7694.7598 14175.68 4294144032
-895.79999 7691.9502 14170.7 4294144032
-890.47998 7691.2002 14171.44 4294144032
-885.66998 7688.3398 14173.29 4294144032
-879.88 7696.4902 14167.53 4294144032
-873.33002 7691.5098 14161.97 4294144032
-867.77002 7688.5498 14158.68 4294144032
-857.87 7686.7598 14155.01 4294144032
-850.20001 7678.1401 14141.01 4294144032
-917.58002 7717.9502 14193.48 4294144032
-910.71002 7710.6299 14178.75 4294144032
-904.38 7707.7798 14175.46 4294144032
-897.40002 7705.7402 14171.88 4294144032
-891.90997 7703.5298 14169.9 4294144032
-881.10999 7707.3198 14163.27 4294144032
-875.04999 7706.6401 14164.01 4294144032
-868.09003 7698.0298 14151.8 4294144032
-862.69 7696.5098 14151.13 4294144032
-859 7696.8701 14149.45 4294144032
-923.23999 7727.6299 14191.27 4294144032
-918.09003 7722.25 14177.19 4294144032
-911.25 7721.5601 14174.48 4294144032
-906 7721.5801 14176.63 4294144032
-898.91998 7718.77 14171.65 4294144032
-893.33002 7715.8398 14168.35 4294144032
-888.34003 7711.5 14167.5 4294144032
-882.52002 7719.6299 14161.72 4294144032
-876.03998 7715.3301 14155.8 4294144032
-869.56 7711.0601 14151.57 4294144032
-930.63 7745.3101 14203.85 4294144032
-923.94 7733.4102 14177.69 4294144032
-918.81 7734.6602 14175.63 4294144032
-912.78998 7734.6001 14174.23 4294144032
-907.19 7731.7002 14171.03 4294144032
-900.26001 7730.29 14167 4294144032
-893.92999 7727.48 14165.39 4294144032
-883.42999 7727.5498 14152.1 4294144032
-877.17999 7725.4399 14150.21 4294144032
-871.19 7725.48 14152.28 4294144032
-939.06 7758.9502 14204.52 4294144032
-931.40997 7751.8101 14191.58 4294144032
-925.40997 7745.73 14176.12 4294144032
-920.02002 7744.7798 14170.03 4294144032
-914.08002 7745.48 14170.03 4294144032
-908.53998 7743.2202 14166.37 4294144032
-901.70001 7742.6001 14165.43 4294144032
-895.17999 7738.27 14159.42 4294144032
-890 7732.4902 14155.95 4294144032
-884.73999 7739.0498 14147.44 4294144032
-946.34998 7769.2202 14203.68 4294144032
-939.84998 7765.4502 14192.24 4294144032
-932.27002 7758.9702 14180.53 4294144032
-926.78003 7757.2598 14171.44 4294144032
-921.39001 7756.3301 14167.04 4294144032
-915.52002 7757.7598 14168.36 4294144032
-909.5 7757.7998 14168.72 4294144032
-903.03998 7754.1699 14162.44 4294144032
-896.17999 7746.9399 14151.19 4294144032
-891.41998 7744.7998 14154.38 4294144032
-959.33002 7788.6899 14207.79 4294144032
-953.40997 7783.6699 14202.26 4294144032
-947.13 7775.6201 14189.62 4294144032
-941.25 7777.02 14189.24 4294144032
-933.31 7767.6499 14172.28 4294144032
-928.34003 7770.2998 14171.16 4294144032
-923.09998 7770.77 14167.7 4294144032
-917.06 7770.8101 14168.07 4294144032
-910.77002 7768.6802 14164.5 4294144032
-903.22998 7762.1602 14152.8 4294144032
-897.69 7759.98 14150.92 4294144032
-892.91998 7757.8398 14154.11 4294144032
-954.46997 7792.3101 14193.91 4294144032
-948.98999 7790.8799 14193.35 4294144032
-941.85999 7782.0498 14174.33 4294144032
-934.88 7780.6899 14171.99 4294144032
-929.15002 7783.4399 14170.87 4294144032
-924.65002 7783.8301 14167.4 4294144032
-918.51001 7783.0898 14164.77 4294144032
-912.13 7780.23 14161.5 4294144032
-905 7777.4102 14156.54 4294144032
-899.02002 7771.52 14147.93 4294144032
-968.37 7812.6602 14204.53 4294144032
-961.73999 7808.25 14195.17 4294144032
-955.62 7801.7202 14186.95 4294144032
-949.33002 7793.7002 14174.4 4294144032
-943.52002 7795.77 14173.65 4294144032
-936.53998 7794.46 14173 4294144032
-930.45001 7794.27 14166.54 4294144032
-926.29999 7797.6499 14168.5 4294144032
-920.14001 7796.8701 14165.78 4294144032
-913.14001 7788.8999 14153.24 4294144032
-976.60999 7829.9399 14208.41 4294144032
-968.87 7822.8398 14197.18 4294144032
-962.34998 7813.23 14180.16 4294144032
-956.59003 7809.6299 14177.27 4294144032
-950.83002 7805.98 14172.69 4294144032
-944.91998 7807.3398 14170.62 4294144032
-937.44 7808.2798 14172.31 4294144032
-932.17999 7808.8198 14168.93 4294144032
-920.64001 7801.1001 14149.47 4294144032
-914.40997 7799.73 14148.91 4294144032
-907.26001 7796.8501 14142.27 4294144032
-902.03003 7797.5601 14145.64 4294144032
-977.59998 7837.8599 14198.71 4294144032
-969.47998 7827.8101 14182.15 4294144032
-963.51001 7822.6201 14173.18 4294144032
-958.09998 7821.96 14175.63 4294144032
-952.69 7821.25 14176.38 4294144032
-945.57001 7819.0298 14167.67 4294144032
-939.21997 7823.1099 14164.01 4294144032
-933.28998 7818.1099 14160.19 4294144032
-928.78003 7818.6001 14158.5 4294144032
-921.91998 7811.9199 14145.13 4294144032
-996.29999 7852.9199 14215.3 4294144032
-990.38 7848.46 14207.64 4294144032
-978.58002 7845.7798 14189 4294144032
-970.73999 7837.9302 14176.48 4294144032
-965.47998 7838.5801 14176.48 4294144032
-959.60999 7834.25 14172.29 4294144032
-954.66998 7837.4902 14168.99 4294144032
-947.06 7831.3198 14165.94 4294144032
-940.03998 7830.0098 14163.7 4294144032
-934.59003 7828.9902 14155.92 4294144032
-929.98999 7828.7002 14152.83 4294144032
-923.07001 7828.0498 14150.21 4294144032
-997.67999 7863.7798 14210.92 4294144032
-991.94 7860.77 14204.28 4294144032
-987.16998 7859.4102 14208.8 4294144032
-979.75 7855.1201 14180.31 4294144032
-972.34998 7850.9902 14176.13 4294144032
-966.06 7849.5098 14172.11 4294144032
-961.21002 7847.3101 14171.94 4294144032
-954.57001 7842.9702 14165.97 4294144032
-948.90997 7846.6001 14169.61 4294144032
-941.34003 7840.8398 14159.33 4294144032
-935.89001 7839.8198 14151.56 4294144032
-930.78998 7841.7998 14150.8 4294144032
-999.14001 7875.3101 14206.14 4294144032
-981.09998 7865.9702 14175.92 4294144032
-973.60999 7861.1001 14170.43 4294144032
-967.58002 7861.8501 14170.43 4294144032
-961.96002 7859.6899 14170.18 4294144032
-956.15997 7856.04 14165.61 4294144032
-949.5 7851.5298 14154.58 4294144032
-942.38 7849.5 14151.03 4294144032
-937.27002 7851.3799 14148.5 4294144032
-993.92999 7876.5698 14184.84 4294144032
-982.27002 7875.3501 14168.91 4294144032
-975.12 7873.3398 14166.97 4294144032
-969.19 7874.9199 14170.06 4294144032
-963.56 7872.8101 14169.89 4294144032
-957.57001 7867.6499 14162.62 4294144032
-951.34003 7866.77 14156.54 4294144032
-944.03003 7863.23 14150.29 4294144032
-1015.89 7904.1099 14208.22 4294144032
-1008.69 7902.02 14202.9 4294144032
-994.45001 7886.7798 14179.13 4294144032
-983.33002 7889.9702 14171.14 4294144032
-976.56 7884.9502 14163.97 4294144032
-970.51001 7885.7002 14163.97 4294144032
-958.62 7876.25 14154.22 4294144032
-952.57001 7876.8701 14150.84 4294144032
-945.59998 7876.29 14149.91 4294144032
-1016.34 7913.6099 14201.18 4294144032
-1009.51 7908.46 14190.54 4294144032
-1002.34 7900.5498 14179.74 4294144032
-996.09998 7899.8599 14178.73 4294144032
-990.65997 7893.3198 14172.32 4294144032
-984.87 7902.3198 14169.43 4294144032
-978.09003 7897.29 14162.26 4294144032
-972.12 7898.77 14163.57 4294144032
-965.75 7890.6899 14152.68 4294144032
-960.39001 7890.77 14154.84 4294144032
-954.22998 7890.6699 14151.75 4294144032
-1024.3101 7927.5298 14206.84 4294144032
-1018.11 7927.4302 14202.06 4294144032
-1010.23 7914.1001 14176.79 4294144032
-1003.72 7911.3901 14175.32 4294144032
-997.19 7908.5098 14170.39 4294144032
-992.21002 7905.6699 14170.6 4294144032
-986.21002 7913.1001 14163.32 4294144032
-979.89001 7911.8301 14164.47 4294144032
-973.46002 7909.6099 14159.15 4294144032
-967.16998 7902.2998 14149.67 4294144032
-961.71002 7901.6001 14150.43 4294144032
-1025.9 7939.8999 14205.09 4294144032
-1018.27 7928.6401 14180.37 4294144032
-1012 7927.96 14177.75 4294144032
-1005 7921.5 14169.58 4294144032
-999.10999 7923.73 14172.2 4294144032
-994.03003 7920.1499 14171.11 4294144032
-988.12 7928.4199 14166.9 4294144032
-980.20001 7920.5698 14156.12 4294144032
-974.60999 7918.98 14152.11 4294144032
-968.67999 7914.6299 14147.94 4294144032
-962.92999 7911.6899 14144.7 4294144032
-1031.61 7948.0801 14200.1 4294144032
-1026.4399 7944.0801 14188.71 4294144032
-1019.36 7937.1802 14170.23 4294144032
-1013.19 7937.29 14170.61 4294144032
-1006.55 7933.7402 14166.07 4294144032
-1000.57 7935.3501 14169.15 4294144032
-995.39001 7930.9902 14166.67 4294144032
-989.01001 7935.54 14155.84 4294144032
-981.45001 7930.6602 14150.37 4294144032
-976.03003 7930.54 14148.98 4294144032
-1039.99 7964.77 14205.88 4294144032
-1032.8101 7957.3701 14191.25 4294144032
-1027.45 7951.8901 14177.25 4294144032
-1007.93 7950.6802 14172.33 4294144032
-1002.03 7946.9199 14166.01 4294144032
-990.64001 7948.6201 14155.4 4294144032
-982.96002 7942.8999 14146.85 4294144032
-1054.33 7979.27 14210.7 4294144032
-1047.54 7975.0098 14204.86 4294144032
-1041.3101 7974.9102 14200.09 4294144032
-1033.9399 7966.0298 14182.86 4294144032
-1029.14 7964.98 14176.79 4294144032
-1022.82 7964.1299 14170.71 4294144032
-1016.62 7964.1802 14169.41 4294144032
-1009.21 7960.7798 14166.56 4294144032
-991.97998 7959.3999 14149.25 4294144032
-984.66998 7956.71 14147.71 4294144032
-1055.77 7990.1802 14206.3 4294144032
-1049.0699 7986.6499 14201.77 4294144032
-1041.38 7981.4199 14187.69 4294144032
-1034.96 7973.8901 14173.08 4294144032
-1031.13 7980.3198 14180.32 4294144032
-1024.6899 7978.6899 14172.85 4294144032
-1018.39 7978.0098 14170.24 4294144032
-1010.4 7970.1699 14159.47 4294144032
-1005.15 7971.6401 14162.47 4294144032
-998.79999 7964.3701 14154.7 4294144032
-993.78998 7973.9502 14151.39 4294144032
-1063.91 8004.4902 14204.66 4294144032
-1057.21 8001.04 14201.81 4294144032
-1049.3199 7988.54 14181.37 4294144032
-1042.11 7987.02 14173.9 4294144032
-1036.47 7985.5098 14169.99 4294144032
-1031.85 7985.9399 14166.52 4294144032
-1026.38 7991.79 14172.36 4294144032
-1012.53 7986.98 14165.6 4294144032
-1006.04 7978.6899 14149.69 4294144032
-1000.16 7975.21 14150.23 4294144032
-1076.6899 8018.1899 14202.98 4294144032
-1070.6801 8020.0498 14211.13 4294144032
-1065.36 8015.3599 14200.14 4294144032
-1050.9301 8000.7998 14177.79 4294144032
-1044.11 8002.3701 14177.41 4294144032
-1038.65 8002.3398 14176.1 4294144032
-1033.64 7999.77 14167.33 4294144032
-1020.58 8001.2998 14163.96 4294144032
-1013.61 7995.5 14155.43 4294144032
-1007.2 7994.1299 14153.21 4294144032
-1001.8 7988.23 14148.06 4294144032
-1078.55 8032.04 14203.76 4294144032
-1072.03 8030.1802 14205.31 4294144032
-1066.4301 8029.3101 14200.93 4294144032
-1058.98 8014.5 14178.2 4294144032
-1052.36 8011.6401 14173.29 4294144032
-1045.62 8013.8901 14172.52 4294144032
-1040.0601 8013.1802 14171.6 4294144032
-1028.29 8012.77 14160.38 4294144032
-1021.57 8009.0801 14152.47 4294144032
-1014.7 8004.1201 14147.02 4294144032
-1008.57 8004.96 14148.71 4294144032
-1085.99 8046.52 14203.75 4294144032
-1080.04 8049 14209.83 4294144032
-1066.6801 8031.1699 14180.51 4294144032
-1060.61 8026.7998 14174.69 4294144032
-1053.71 8027.8901 14178.16 4294144032
-1047.33 8026.9902 14172 4294144032
-1041.26 8022.48 14162.79 4294144032
-1037.11 8026.6401 14165.92 4294144032
-1030.17 8027.3999 14162.54 4294144032
-1023.24 8022.1899 14151.95 4294144032
-1016.07 8014.9399 14142.52 4294144032
-1009.93 8015.79 14144.21 4294144032
-1087.87 8060.4399 14204.59 4294144032
-1080.7 8053.8701 14194.69 4294144032
-1073.16 8044.52 14183.06 4294144032
-1068.23 8042.7998 14177.37 4294144032
-1062.34 8039.8999 14174.16 4294144032
-1048.75 8037.8799 14167.56 4294144032
-1043.45 8039.3198 14168.87 4294144032
-1037.84 8038.3701 14162.79 4294144032
-1031.27 8035.98 14154.03 4294144032
-1024.4399 8031.54 14144.83 4294144032
-1074.6 8055.2998 14176.83 4294144032
-1069.96 8055.8501 14175.14 4294144032
-1063.98 8052.27 14172.32 4294144032
-1056.76 8051.1001 14171.79 4294144032
-1050.46 8050.9902 14167.02 4294144032
-1044.76 8049.4302 14163.03 4294144032
-1039.05 8047.7202 14155.66 4294144032
-1032.28 8043.8501 14144.3 4294144032
-1104.3 8088.52 14204.89 4294144032
-1082.91 8070.3398 14176.4 4294144032
-1076.14 8066.8799 14173.58 4294144032
-1065.65 8070.8701 14168.65 4294144032
-1058.17 8061.8701 14165.56 4294144032
-1052.5699 8067.21 14159.37 4294144032
-1045.9 8064.2598 14152.78 4294144032
-1040.45 8058.5601 14151.12 4294144032
-1034.15 8058.4302 14146.35 4294144032
-1099.0601 8090.6699 14205.79 4294144032
-1091.85 8089.9399 14183.93 4294144032
-1084.66 8083.3901 14174.14 4294144032
-1078.1 8081.52 14175.7 4294144032
-1073.54 8082.8198 14175.31 4294144032
-1066.1801 8074.8398 14164.61 4294144032
-1059.6 8072.71 14161.01 4294144032
-1053.39 8073.46 14159.32 4294144032
-1046.51 8068.9702 14150.04 4294144032
-1041.85 8069.3901 14146.58 4294144032
-1099.52 8094.02 14188.05 4294144032
-1092.6 8095.4902 14170.08 4294144032
-1086.42 8096.5098 14173.55 4294144032
-1079.54 8092.3701 14171.14 4294144032
-1074.78 8092.1802 14168.15 4294144032
-1068.29 8090.8599 14167.54 4294144032
-1062.12 8091.96 14158.61 4294144032
-1054.59 8082.6899 14150.39 4294144032
-1048.3 8082.75 14149.09 4294144032
-1113.73 8122.75 14209.31 4294144032
-1107.1 8114.8301 14202.01 4294144032
-1100.17 8098.8301 14172.9 4294144032
-1094.37 8108.6099 14169.49 4294144032
-1088.08 8108.8901 14171.66 4294144032
-1080.79 8101.7202 14163.96 4294144032
-1076.53 8105.29 14167.56 4294144032
-1069.63 8100.9502 14161.67 4294144032
-1062.84 8097.3999 14157.17 4294144032
-1055.34 8094.4102 14147.21 4294144032
-1121.17 8130.6699 14204.2 4294144032
-1114.39 8127.5698 14194.15 4294144032
-1107.03 8114.3301 14177.58 4294144032
-1102.16 8113.48 14174.99 4294144032
-1096.45 8124.0098 14172.87 4294144032
-1089.9399 8122.7598 14172.35 4294144032
-1082.9399 8117.8599 14168.65 4294144032
-1077.87 8115.3901 14161.67 4294144032
-1070.86 8110.2998 14154.49 4294144032
-1064.16 8107.4902 14151.3 4294144032
-1057.34 8109.7598 14150.51 4294144032
-1137.36 8155.6299 14211.48 4294144032
-1128.5601 8143.8701 14206.56 4294144032
-1123.08 8144.5498 14204.87 4294144032
-1115.36 8134.6499 14182.97 4294144032
-1110.1 8136.8301 14169.77 4294144032
-1103.25 8127.3901 14173.98 4294144032
-1098.22 8137.1401 14172.25 4294144032
-1090.79 8129.0801 14159.88 4294144032
-1084.38 8128.6299 14162.36 4294144032
-1079.7 8129.1899 14160.67 4294144032
-1071.79 8117.3599 14143.33 4294144032
-1065.58 8118.25 14145.02 4294144032
-1138.97 8167.1699 14206.46 4294144032
-1130.8 8160.04 14211.21 4294144032
-1123.85 8150.1001 14191 4294144032
-1116.75 8144.75 14177.06 4294144032
-1105.78 8145.98 14171.9 4294144032
-1092.16 8145.27 14162.84 4294144032
-1086.34 8143.2998 14164.42 4294144032
-1080.26 8139.3799 14154.77 4294144032
-1074.02 8134.25 14149.29 4294144032
-1144.96 8175.73 14209.96 4294144032
-1140.7 8179.5698 14204.5 4294144032
-1124.9301 8157.96 14181.19 4294144032
-1118.65 8158.6299 14177.72 4294144032
-1113.04 8158.3701 14171.26 4294144032
-1106.61 8152.1201 14170.04 4294144032
-1100.5601 8160.3999 14164.01 4294144032
-1093.72 8156.8501 14159.52 4294144032
-1087.0699 8148.8101 14150.55 4294144032
-1081.79 8150.96 14151.46 4294144032
-1075.16 8142.8398 14140.79 4294144032
-1152.4301 8194.71 14214.27 4294144032
-1146.98 8195.8896 14208.7 4294144032
-1141.16 8182.8599 14186.72 4294144032
-1131.71 8166.6401 14175.65 4294144032
-1126.38 8174.2598 14185.8 4294144032
-1120.23 8170.1499 14172.69 4294144032
-1113.87 8164.5 14169.39 4294144032
-1108.39 8165.25 14169.39 4294144032
-1102.34 8173.5298 14163.35 4294144032
-1094.66 8163.8999 14148.33 4294144032
-1088.04 8162.04 14149.91 4294144032
-1160.34 8205.29 14207.52 4294144032
-1153.85 8204.8301 14208.32 4294144032
-1147.22 8197.6299 14188.24 4294144032
-1141.25 8189.27 14174.21 4294144032
-1133.73 8181.2002 14175.89 4294144032
-1127.34 8181.2002 14172.81 4294144032
-1121.9301 8182.54 14170.73 4294144032
-1115.77 8178.4399 14170.12 4294144032
-1110.08 8177.6401 14167.44 4294144032
-1103.8 8184.3701 14158.72 4294144032
-1096.42 8177.02 14147.67 4294144032
-1162.09 8217.7002 14205.53 4294144032
-1155.27 8214.9404 14202.36 4294144032
-1148.42 8206.1504 14178 4294144032
-1143.1899 8203.1699 14174.83 4294144032
-1135.45 8193.5898 14173.92 4294144032
-1129.36 8195.8799 14174.82 4294144032
-1122.74 8194.2998 14167.46 4294144032
-1119.15 8203.1699 14166.09 4294144032
-1111.45 8187.73 14161.5 4294144032
-1104.75 8191.3999 14147.51 4294144032
-1098.28 8190.8999 14148.3 4294144032
-1163.95 8230.8701 14204.82 4294144032
-1150.14 8218.5 14175.92 4294144032
-1144.79 8214.6797 14169.76 4294144032
-1136.63 8202.1299 14165.29 4294144032
-1131.0699 8208.2803 14172.84 4294144032
-1124.33 8205.8896 14164.1 4294144032
-1120.52 8213.2598 14160.13 4294144032
-1112.7 8196.9902 14152.57 4294144032
-1106.9301 8207.5898 14152.09 4294144032
-1164.1899 8232.5596 14184.35 4294144032
-1152.1 8232.4502 14176.6 4294144032
-1146.73 8228.5801 14170.35 4294144032
-1139.2 8220.6299 14173.83 4294144032
-1132.46 8218.3701 14166.88 4294144032
-1126.13 8219.0303 14163.4 4294144032
-1121.22 8224.25 14155.55 4294144032
-1173.45 8252.3604 14195.04 4294144032
-1165.73 8243.4102 14179.66 4294144032
-1159.2 8242.8799 14178.77 4294144032
-1153.8199 8244.79 14174.5 4294144032
-1148.67 8242.5303 14171.01 4294144032
-1140.59 8230.7197 14167.86 4294144032
-1134.37 8232.2695 14167.46 4294144032
-1127.5 8229.04 14155.74 4294144032
-1116.27 8223.2598 14151.18 4294144032
-1182.33 8269.3203 14203.93 4294144032
-1173.58 8253.2803 14173.27 4294144032
-1166.78 8256.5996 14177.24 4294144032
-1160.83 8254.4805 14175.36 4294144032
-1155.13 8254.1299 14167.21 4294144032
-1149.97 8251.8096 14163.65 4294144032
-1142.63 8245.4297 14169.82 4294144032
-1135.45 8240.0498 14157.52 4294144032
-1128.67 8237.6201 14147.18 4294144032
-1195.6 8288.4102 14211.19 4294144032
-1187.72 8278.7002 14194.53 4294144032
-1183.01 8274.0498 14188.7 4294144032
-1175.09 8269.6104 14177.79 4294144032
-1168.21 8266.6904 14171.24 4294144032
-1162.15 8263.8096 14168.08 4294144032
-1151.91 8265.7695 14164.29 4294144032
-1143.01 8253.9902 14159.46 4294144032
-1136.9301 8250.7998 14151.13 4294144032
-1130.58 8251.5098 14147.75 4294144032
-1188.51 8284.1699 14180.59 4294144032
-1183.91 8280.3203 14176.14 4294144032
-1176.85 8282.0195 14175.74 4294144032
-1169.96 8279.0898 14169.19 4294144032
-1163.89 8276.2305 14166.03 4294144032
-1159.02 8281.9199 14166.7 4294144032
-1153.63 8278.1201 14162.16 4294144032
-1144.73 8266.3799 14157.43 4294144032
-1138.85 8264.75 14151.78 4294144032
-1197.4 8300.8398 14184.27 4294144032
-1190.1801 8295.8203 14177.24 4294144032
-1184.88 8292.8604 14174.07 4294144032
-1178.4 8292.8604 14171.01 4294144032
-1165.53 8287.8701 14162.68 4294144032
-1160.3199 8291.2002 14159.3 4294144032
-1154.92 8287.3604 14153.16 4294144032
-1146.33 8277.9805 14154.01 4294144032
-1140.45 8276.3398 14148.36 4294144032
-1191.73 8306.6699 14172.5 4294144032
-1186.53 8304.3701 14168.93 4294144032
-1180.05 8304.5195 14167.64 4294144032
-1173.6801 8305.4297 14167.64 4294144032
-1167.26 8300.1396 14158.84 4294144032
-1160.9301 8301.3896 14153.28 4294144032
-1156.65 8299.7598 14151.1 4294144032
-1147.9399 8289.6201 14150.67 4294144032
-1206.0601 8321.3799 14192.77 4294144032
-1199.62 8321.8896 14173.48 4294144032
-1193.73 8320.5996 14172.99 4294144032
-1188.41 8317.54 14168.15 4294144032
-1182.13 8319.1201 14167.74 4294144032
-1175.1 8315.4297 14159.92 4294144032
-1168.85 8317.25 14164.59 4294144032
-1157.58 8312.2695 14149.03 4294144032
-1216.61 8343.4199 14207.3 4294144032
-1207.41 8330.7197 14185.43 4294144032
-1201.3 8333.54 14170.1 4294144032
-1195.51 8333.0098 14170.9 4294144032
-1191.17 8336.8701 14177.84 4294144032
-1184 8332.29 14166.94 4294144032
-1177.17 8330.1104 14161.7 4294144032
-1169.73 8323.4902 14152.02 4294144032
-1164.73 8328.5195 14153.07 4294144032
-1224.4301 8357.8203 14205.26 4294144032
-1215.9301 8344.3896 14185.5 4294144032
-1208.54 8338.4805 14175.42 4294144032
-1203.29 8347.3896 14168.88 4294144032
-1197.61 8347.6201 14170.97 4294144032
-1192.0699 8343.1104 14165.25 4294144032
-1185.98 8346.2197 14167.42 4294144032
-1178.16 8337.0996 14150.4 4294144032
-1171.58 8336.6504 14151.21 4294144032
-1165.8 8336.1797 14141.38 4294144032
-1225.45 8364.75 14192.25 4294144032
-1218.41 8361.4404 14178.85 4294144032
-1209.89 8347.8096 14168.07 4294144032
-1204.97 8359.0498 14165.46 4294144032
-1199.39 8360.0303 14168.85 4294144032
-1194.04 8356.96 14164.02 4294144032
-1186.53 8350.1201 14150.87 4294144032
-1239.6801 8383.4502 14206.64 4294144032
-1226.02 8368.6602 14175.69 4294144032
-1219.21 8366.9004 14177.31 4294144032
-1213.03 8369.46 14169.23 4294144032
-1207.3199 8375.3203 14169.86 4294144032
-1201.39 8373.9697 14169.3 4294144032
-1195.59 8367.7998 14159.23 4294144032
-1188.1899 8361.7598 14147.47 4294144032
-1181.66 8361.9102 14146.18 4294144032
-1241.29 8394.3096 14201.83 4294144032
-1228.0601 8382.5996 14176.13 4294144032
-1221.34 8381.5195 14177.35 4294144032
-1213.91 8375.5898 14167.28 4294144032
-1208.99 8386.9297 14166.35 4294144032
-1197.26 8379.4502 14155.81 4294144032
-1250.63 8412.8896 14213.21 4294144032
-1241.64 8396.6904 14182.69 4294144032
-1229.4301 8391.9199 14168.74 4294144032
-1222.8101 8391.5996 14171.25 4294144032
-1215.71 8388 14165.14 4294144032
-1201.37 8379.5498 14155.4 4294144032
-1198.7 8389.5195 14149.72 4294144032
-1191.8 8387.1904 14142.71 4294144032
-1259.63 8423.4502 14209.66 4294144032
-1250.4 8411.3604 14187.44 4294144032
-1243.58 8409.79 14180.12 4294144032
-1231.47 8405.8604 14169.16 4294144032
-1224.85 8405.6104 14171.75 4294144032
-1217.97 8403.54 14168.21 4294144032
-1211.88 8406.9902 14152.46 4294144032
-1211.11 8401.6104 14155.72 4294144032
-1260.5699 8435.25 14206.19 4294144032
-1251.55 8419.1104 14177.38 4294144032
-1244.95 8419.0596 14172.63 4294144032
-1233.4 8419.0498 14168.28 4294144032
-1226.4301 8416.46 14166.92 4294144032
-1219.77 8415.96 14166.04 4294144032
-1213.33 8417.0596 14146.34 4294144032
-1260.55 8435.1201 14181.3 4294144032
-1253.05 8429.1904 14171.26 4294144032
-1246.4399 8429.1299 14166.51 4294144032
-1235.55 8433.7305 14168.35 4294144032
-1228.24 8428.8799 14164.74 4294144032
-1220.55 8421.3496 14152.04 4294144032
-1215.12 8429.4697 14144.17 4294144032
-1282.39 8459.1699 14207.75 4294144032
-1276.46 8463.8398 14210.87 4294144032
-1262.17 8445.96 14176.45 4294144032
-1255.11 8443.0498 14169.94 4294144032
-1248.62 8443.9199 14168.25 4294144032
-1237.14 8444.5703 14163.5 4294144032
-1229.71 8438.96 14158.62 4294144032
-1221.75 8435.3203 14150.74 4294144032
-1286.05 8483.2998 14202.02 4294144032
-1277.05 8467.71 14194.27 4294144032
-1264.26 8459.9805 14176.9 4294144032
-1256.96 8455.4805 14167.74 4294144032
-1250.34 8455.5303 14164.68 4294144032
-1243.95 8457.1602 14164.27 4294144032
-1231.15 8448.8799 14150.7 4294144032
-1293.47 8488.3096 14208.99 4294144032
-1277.86 8473.0996 14180.23 4294144032
-1265.77 8470.0596 14170.75 4294144032
-1258.92 8468.6699 14166.81 4294144032
-1252.39 8474.9902 14172.49 4294144032
-1245.5601 8468.0498 14159.49 4294144032
-1239.39 8465.6104 14152.49 4294144032
-1295.13 8499.1699 14204.09 4294144032
-1279.6 8484.6699 14175.02 4294144032
-1267.39 8480.9004 14165.87 4294144032
-1260.65 8480.2803 14163.22 4294144032
-1253.65 8483.5303 14163.76 4294144032
-1247.84 8483.5498 14162.39 4294144032
-1241.1 8477.2695 14148.98 4294144032
-1233.96 8473.8398 14146.28 4294144032
-1304.15 8514.5195 14208.34 4294144032
-1296.1899 8506.1396 14192.69 4294144032
-1288.14 8497.0801 14177.46 4294144032
-1281.95 8500.2305 14178 4294144032
-1269.71 8496.46 14168.85 4294144032
-1261.8 8493.5996 14162.27 4294144032
-1255.48 8495.9102 14161.44 4294144032
-1247.8199 8489.0703 14148.45 4294144032
-1243.13 8491.1299 14147.62 4294144032
-1306.1801 8527.7998 14207.45 4294144032
-1297.25 8513.0898 14181.29 4294144032
-1288.98 8508.0996 14172.64 4294144032
-1282.99 8507.1299 14166.52 4294144032
-1271.4399 8507.9697 14163.54 4294144032
-1263.42 8504.4902 14157.46 4294144032
-1256.74 8504.4404 14152.7 4294144032
-1249.98 8503.8096 14150.05 4294144032
-1306.05 8526.9004 14182.95 4294144032
-1299.01 8524.6699 14176.05 4294144032
-1291.1 8522.0801 14172.94 4294144032
-1292.98 8534.5195 14170.67 4294144032
-1285.9399 8526.6504 14176.05 4294144032
-1273.41 8521.1797 14162.56 4294144032
-1265.48 8518.3701 14156.07 4294144032
-1258.23 8514.5 14146.51 4294144032
-1252.14 8518.5098 14150.03 4294144032
-1315.09 8547.6299 14192.83 4294144032
-1308.0699 8540.1104 14181.96 4294144032
-1301.03 8537.8799 14175.05 4294144032
-1294.98 8547.7305 14169.67 4294144032
-1287.1 8534.3604 14165.91 4294144032
-1275.5 8535.1602 14162.85 4294144032
-1266.86 8527.6104 14148.51 4294144032
-1324.26 8568.9404 14200.56 4294144032
-1309.72 8550.8701 14175.33 4294144032
-1302.6801 8548.7305 14170.12 4294144032
-1288.39 8548.4697 14166.19 4294144032
-1281.85 8543.9697 14158.84 4294144032
-1275.36 8539.8398 14147.51 4294144032
-1268.9399 8541.6396 14148.88 4294144032
-1261.41 8536.0596 14134.99 4294144032
-1333.74 8586.6699 14208.66 4294144032
-1324.85 8572.7402 14183.92 4294144032
-1317.11 8566.2197 14176.04 4294144032
-1304.8101 8562.71 14170.38 4294144032
-1297.09 8561.6201 14168.24 4294144032
-1290.25 8560.8096 14162.2 4294144032
-1283.12 8552.4404 14149.98 4294144032
-1278.04 8557.79 14154.35 4294144032
-1269.97 8548.5498 14137.46 4294144032
-1342.9399 8602.4102 14207.3 4294144032
-1334.8199 8593.6201 14197.2 4294144032
-1326.89 8585.96 14182.88 4294144032
-1319.27 8580.2598 14176.37 4294144032
-1306.83 8575.9297 14169.35 4294144032
-1298.96 8574.0098 14165.85 4294144032
-1292.11 8573.2002 14159.81 4294144032
-1284.98 8564.8701 14147.68 4294144032
-1279.4301 8567.0801 14146.85 4294144032
-1351.85 8616.0703 14207.09 4294144032
-1343.39 8605.2598 14187.58 4294144032
-1334.92 8594.2402 14175.35 4294144032
-1328.33 8595.2695 14175.35 4294144032
-1322.13 8598.8701 14171.98 4294144032
-1309.0699 8590.6504 14169.26 4294144032
-1300.97 8587.2305 14164.81 4294144032
-1293.76 8584.0898 14154.94 4294144032
-1287.0699 8578.75 14146.23 4294144032
-1352.9301 8623 14195.62 4294144032
-1337.09 8608.2402 14175.57 4294144032
-1330.59 8609.9404 14175.15 4294144032
-1323.09 8605.1104 14171.62 4294144032
-1318.0601 8605.3496 14173.82 4294144032
-1310.26 8604 14168.21 4294144032
-1301.9 8593.3701 14152.08 4294144032
-1288.6899 8589.5898 14141.27 4294144032
-1354.14 8630.7002 14185.43 4294144032
-1346.91 8627.79 14178.96 4294144032
-1339.5 8623.75 14176.71 4294144032
-1332.52 8622.3896 14172.8 4294144032
-1324.77 8616.0098 14166.72 4294144032
-1319 8611.4404 14161 4294144032
-1311.64 8613.0703 14148.13 4294144032
-1304 8607.2598 14150.61 4294144032
-1297.71 8610.3604 14140.38 4294144032
-1362.05 8648.5996 14191.74 4294144032
-1348.97 8641.0303 14177.87 4294144032
-1340.97 8638.6699 14178.18 4294144032
-1334.08 8632.46 14166.52 4294144032
-1327.14 8631.4697 14167.78 4294144032
-1321.26 8631.7695 14159.21 4294144032
-1312.23 8616.9805 14143.93 4294144032
-1305.29 8615.7695 14141.78 4294144032
-1379.9 8669.9902 14209.18 4294144032
-1370.88 8661.4697 14190.21 4294144032
-1363.13 8655.5098 14180.25 4294144032
-1351.04 8654.2695 14176.76 4294144032
-1342.41 8647.96 14170.62 4294144032
-1336 8644.9102 14164.15 4294144032
-1328.6899 8641.5303 14161.5 4294144032
-1321.96 8636.3496 14154.59 4294144032
-1315.21 8636.5303 14153.23 4294144032
-1381.26 8678.5195 14200.31 4294144032
-1372.48 8671.54 14183.91 4294144032
-1359.74 8666.3604 14173.95 4294144032
-1352.96 8666.5703 14172.59 4294144032
-1344.47 8661.2002 14169.51 4294144032
-1336.72 8655.0996 14157.86 4294144032
-1330.36 8652.3701 14156.48 4294144032
-1323.38 8645.5898 14146.94 4294144032
-1316.73 8646.4805 14145.25 4294144032
-1390.84 8695.71 14210.39 4294144032
-1382.21 8684.4805 14185.75 4294144032
-1373.9399 8680.7803 14176.23 4294144032
-1361.8199 8679.5996 14172.83 4294144032
-1354.41 8675.8496 14165.01 4294144032
-1346.03 8671.2598 14163.2 4294144032
-1338.75 8668.2305 14155.05 4294144032
-1325.53 8659.6504 14147.19 4294144032
-1382.98 8694.6904 14179.42 4294144032
-1376.17 8694.8496 14176.45 4294144032
-1363.76 8692.0098 14170.33 4294144032
-1356.6 8689.8701 14165.14 4294144032
-1348.1899 8685.1797 14161.65 4294144032
-1340.91 8682.25 14155.19 4294144032
-1334.0699 8676.5098 14150.41 4294144032
-1327.5601 8672.8799 14146.07 4294144032
-1393.04 8709.5195 14187.35 4294144032
-1384.7 8705.54 14174.36 4294144032
-1378.13 8707.2695 14173.94 4294144032
-1370.95 8705.1396 14168.76 4294144032
-1358.8 8703.9502 14165.36 4294144032
-1349.88 8696.0703 14156.69 4294144032
-1342.22 8690.6904 14146.24 4294144032
-1335.84 8688.0195 14144.95 4294144032
-1408.55 8736.6699 14208.59 4294144032
-1394.27 8717.1904 14177.1 4294144032
-1387.0699 8720.4004 14175.83 4294144032
-1379.98 8718.9502 14170.22 4294144032
-1373.04 8718.3896 14167.59 4294144032
-1366.96 8717.8496 14166.74 4294144032
-1359.53 8714.1396 14159.02 4294144032
-1351.5601 8706.9102 14151.63 4294144032
-1344.02 8702.3496 14142.55 4294144032
-1409.15 8740.3799 14191.87 4294144032
-1396.65 8732.0596 14178.55 4294144032
-1389.05 8732.8701 14173.38 4294144032
-1382.4399 8734.4902 14171.25 4294144032
-1375.36 8733.1504 14167.35 4294144032
-1367.9 8723.8301 14152.25 4294144032
-1361.0699 8724.0303 14150.89 4294144032
-1353.25 8717.7598 14146.55 4294144032
-1427.21 8766.8096 14207.97 4294144032
-1420.14 8765.7695 14207.55 4294144032
-1410.13 8746.4805 14179.06 4294144032
-1397.53 8742.9297 14171.77 4294144032
-1391.14 8746.0098 14170.49 4294144032
-1384.28 8746.1299 14167.44 4294144032
-1376.8101 8742.3701 14159.63 4294144032
-1370.34 8739.4297 14154.89 4294144032
-1363.27 8738.1201 14151.07 4294144032
-1429.51 8780.9199 14208.1 4294144032
-1419.71 8763.0703 14180.48 4294144032
-1412.51 8761.1904 14178.7 4294144032
-1399.77 8756.9805 14171.83 4294144032
-1393.25 8759.2695 14169.29 4294144032
-1386 8756.9697 14162.34 4294144032
-1379.03 8756.46 14159.79 4294144032
-1371.8 8748.6904 14147.25 4294144032
-1365.09 8749.7402 14147.25 4294144032
-1438.55 8793.8896 14208.14 4294144032
-1429.72 8782.2002 14187.47 4294144032
-1422.11 8777.9102 14181.8 4294144032
-1414.13 8771.25 14172.32 4294144032
-1401.89 8770.2402 14170.62 4294144032
-1394.85 8769.3301 14162.91 4294144032
-1386.5 8765.5898 14153.42 4294144032
-1380.49 8765.7305 14152.15 4294144032
-1374.37 8765.1396 14151.22 4294144032
-1430.84 8789.0596 14175.9 4294144032
-1423.49 8786.3896 14172.86 4294144032
-1416.27 8784.5303 14171.08 4294144032
-1403.75 8781.8701 14166.77 4294144032
-1397.08 8783.3701 14162.96 4294144032
-1388.2 8776.2998 14146.61 4294144032
-1381.86 8779.9004 14152.2 4294144032
-1440.78 8807.5195 14183.29 4294144032
-1433 8802.3203 14174.66 4294144032
-1426.42 8804.4902 14179.41 4294144032
-1418.41 8797.79 14169.84 4294144032
-1405.62 8793.5596 14163 4294144032
-1398.8101 8794.2305 14157.82 4294144032
-1390.8 8792.7695 14150.54 4294144032
-1455.8 8824.96 14206.96 4294144032
-1450.29 8828.4697 14212.55 4294144032
-1442.03 8815.1602 14172.97 4294144032
-1435.16 8815.5898 14173.4 4294144032
-1427.3101 8815.3604 14172.56 4294144032
-1420.55 8811.1104 14168.68 4294144032
-1407.46 8805.0703 14157.43 4294144032
-1400.39 8804.1602 14149.72 4294144032
-1450.36 8828.9199 14190.63 4294144032
-1444.59 8830.8496 14175.6 4294144032
-1437.55 8830.3203 14172.98 4294144032
-1429.2 8827.0098 14168.67 4294144032
-1422.6899 8824.3799 14167.42 4294144032
-1409.46 8817.5498 14154.91 4294144032
-1402.37 8816.6299 14147.19 4294144032
-1451.62 8836.5703 14180.31 4294144032
-1446.76 8844.1201 14174.32 4294144032
-1439.98 8845.2305 14174.32 4294144032
-1431.74 8842.71 14171.28 4294144032
-1424.6801 8836.6904 14163.09 4294144032
-1454.9399 8856.7998 14178.11 4294144032
-1449.0699 8858.2002 14174.28 4294144032
-1442.27 8859.3096 14174.28 4294144032
-1433.62 8854.3496 14167.37 4294144032
-1425.91 8844.3096 14152.77 4294144032
-1413.1801 8840.8604 14147.21 4294144032
-1456.09 8863.79 14177.29 4294144032
-1450.97 8869.8496 14170.36 4294144032
-1444.04 8870.1602 14169.09 4294144032
-1435.64 8866.8398 14164.8 4294144032
-1428.1801 8858.4199 14152.83 4294144032
-1415.9399 8858.1396 14152.34 4294144032
-1457.74 8873.8496 14170.83 4294144032
-1452.99 8882.21 14166.08 4294144032
-1445.09 8881.9902 14165.24 4294144032
-1436.08 8869.5098 14145.08 4294144032
-1429.22 8870.1904 14148.9 4294144032
