# .PCD v0.7 - Point Cloud Data file format
VERSION 0.7
FIELDS x y z rgb
SIZE 4 4 4 4
TYPE F F F U
COUNT 1 1 1 1
WIDTH 1250
HEIGHT 1
VIEWPOINT 0 0 0 1 0 0 0
POINTS 1250
DATA ascii
30.280001 6902.6001 14017.85 4282410519
34.970001 6915.3599 14025.15 4282410519
38.939999 6914.0098 14022.46 4282410519
44.900002 6913.3101 14021.12 4282410519
50.200001 6912.6001 14021.45 4282410519
55.509998 6913.2002 14019.35 4282410519
60.119999 6909.7998 14021.01 4282410519
64.779999 6911.1201 14023.79 4282410519
70.059998 6910.4102 14022.44 4282410519
75.940002 6902.9502 14019.28 4282410519
80.699997 6913.6602 14020.78 4282410519
85.32 6911.5601 14018.33 4282410519
89.260002 6908.8101 14021.34 4282410519
95.199997 6906.73 14018.98 4282410519
100.46 6903.98 14020.3 4282410519
105.17 6909.2598 14021.01 4282410519
109.12 6907.8599 14019.99 4282410519
119 6904.3398 14021.64 4282410519
124.92 6902.2402 14019.28 4282410519
129.59 6904.1602 14019.97 4282410519
138.83 6902.6201 14013.84 4282410519
144.84 6905.2202 14024.43 4282410519
154.25 6911.0498 14023.13 4282410519
158.82001 6908.25 14017.65 4282410519
164.14 6908.8101 14022.44 4282410519
170.10001 6908.6499 14019 4282410519
179.34 6907.0698 14019.66 4282410519
184.69 6908.9399 14020.34 4282410519
189.89 6905.4199 14015.2 4282410519
-136.3 6925.5698 14021.28 4282410519
-131.64 6924.9502 14019.84 4282410519
-127.68 6926.3901 14024.3 4282410519
-122.36 6925.8301 14021.28 4282410519
-116.34 6923.9102 14023.95 4282410519
-111.68 6922.6401 14024.62 4282410519
-106.96 6918 14021.81 4282410519
-102.35 6920.1001 14025.94 4282410519
-96.989998 6916.8101 14020.8 4282410519
-91.690002 6916.8701 14022.48 4282410519
-83.089996 6918.9902 14023.16 4282410519
-77.809998 6921.0498 14022.17 4282410519
-71.809998 6919.1201 14021.48 4282410519
-67.18 6919.8301 14022.83 4282410519
-57.959999 6928.6602 14025.31 4282410519
-52.599998 6923.3101 14021.17 4282410519
-46.619999 6921.3799 14023.93 4282410519
-41.950001 6918.7002 14021.81 4282410519
-32.720001 6930.21 14026.41 4282410519
-26.700001 6919.4702 14024.93 4282410519
-21.389999 6918.79 14021.81 4282410519
-16.09 6919.4702 14023.16 4282410519
-11.44 6919.48 14023.16 4282410519
-6.8000002 6917.4902 14019.12 4282410519
-0.82999998 6918.1602 14020.47 4282410519
9.79 6920.8301 14019.15 4282410519
13.78 6926.21 14024.96 4282410519
19.08 6922.8101 14021.51 4282410519
24.379999 6918.7798 14021.81 4282410519
30.35 6918.0698 14023.82 4282410519
35.02 6924.7798 14018.83 4282410519
39.009998 6926.1299 14021.61 4282410519
45 6927.4302 14022.62 4282410519
50.290001 6924.6699 14020.51 4282410519
55.619999 6927.3501 14022.62 4282410519
60.290001 6929.9902 14024.65 4282410519
64.830002 6917.1602 14024.16 4282410519
70.129997 6917.1099 14024.16 4282410519
76.099998 6917.0601 14022.48 4282410519
80.849998 6926.4399 14021.28 4282410519
85.5 6925.6699 14019.84 4282410519
90.07 6919.5898 14017.8 4282410519
95.379997 6920.1699 14020.83 4282410519
100.62 6915.3799 14018.02 4282410519
109.42 6926.6802 14019.18 4282410519
109.22 6913.9102 14018.68 4282410519
114.63 6920.5498 14020.49 4282410519
119.89 6917.77 14023.49 4282410519
125.15 6915.02 14019.79 4282410519
133.8 6916.1899 14020.8 4282410519
139.19 6920.1401 14023.93 4282410519
145.03999 6914.5898 14018.02 4282410519
154.53 6923.8398 14021.94 4282410519
159.17999 6923.7402 14021.94 4282410519
165.07001 6920.2002 14020.16 4282410519
170.38 6920.0898 14016.81 4282410519
185.03 6921.71 14020.84 4282410519
190.3 6920.23 14019.83 4282410519
-141.24001 6939.6001 14022.77 4282410519
-136.58 6939.6802 14024.45 4282410519
-121.93 6939.29 14023.11 4282410519
-116.5 6933.3198 14017.63 4282410519
-111.18 6933.3901 14020.98 4282410519
-107.18 6932.1099 14023.32 4282410519
-102.52 6931.5098 14023.65 4282410519
-97.190002 6930.9199 14022.3 4282410519
-91.849998 6928.9902 14021.63 4282410519
-83.260002 6933.1401 14026.43 4282410519
-77.93 6931.8398 14018.62 4282410519
-71.959999 6933.2798 14024.75 4282410519
-67.309998 6933.3301 14024.75 4282410519
-58.029999 6937.4199 14015.96 4282410519
-52.700001 6936.0898 14021.66 4282410519
-46.73 6936.8701 14028.22 4282410519
-41.369999 6931.48 14022.3 4282410519
-32.77 6939.5801 14019.99 4282410519
-26.74 6928.8398 14018.51 4282410519
-21.440001 6933.6099 14026.43 4282410519
-16.120001 6932.96 14025.08 4282410519
-6.8099999 6929.5698 14016.5 4282410519
-0.82999998 6930.9399 14020.96 4282410519
4.4899998 6928.9302 14020.28 4282410519
9.8199997 6943.0801 14025.22 4282410519
13.8 6934.96 14017.29 4282410519
19.120001 6935.6001 14021.99 4282410519
24.43 6932.9399 14025.08 4282410519
30.4 6929.5298 14021.63 4282410519
35.110001 6942.3101 14027.23 4282410519
39.740002 6936.8701 14017.97 4282410519
45.080002 6940.21 14023.11 4282410519
50.400002 6939.5 14025.12 4282410519
56.389999 6939.4302 14019.99 4282410519
61.049999 6940.77 14021.1 4282410519
64.970001 6931.9902 14027.09 4282410519
70.260002 6929.8999 14022.97 4282410519
76.25 6930.5098 14022.64 4282410519
80.989998 6938.5098 14020.33 4282410519
85.650002 6937.79 14018.98 4282410519
90.260002 6934.3701 14020.65 4282410519
95.559998 6932.9502 14021.31 4282410519
100.82 6928.8301 14018.18 4282410519
105.45 6927.4199 14018.85 4282410519
110.3 6940.1699 14021.1 4282410519
114.95 6940.0898 14021.1 4282410519
120.1 6929.8901 14022.64 4282410519
125.41 6929.1299 14021.29 4282410519
133.99001 6926.27 14015.82 4282410519
139.39999 6930.8799 14020.29 4282410519
145.32001 6928.0801 14019.95 4282410519
154.75999 6933.9199 14016.96 4282410519
159.44 6935.1401 14019.65 4282410519
165.38 6932.98 14020.65 4282410519
170.75 6934.8701 14021.33 4282410519
176.03 6933.3901 14020.31 4282410519
185.32001 6932.46 14015.53 4282410519
-156.74001 6948.0298 14021.89 4282410519
-141.46001 6950.3398 14019.12 4282410519
-136.17999 6953.1899 14026.35 4282410519
-127.47 6951.3101 14023.91 4282410519
-122.19 6954.1299 14026.02 4282410519
-111.41 6947.5601 14022.56 4282410519
-107.36 6944.2402 14022.45 4282410519
-102.69 6943.6299 14022.78 4282410519
-97.360001 6943.04 14021.44 4282410519
-92.019997 6941.7798 14020.43 4282410519
-83.389999 6943.8999 14021.11 4282410519
-78.099998 6946.6802 14023.22 4282410519
-72.089996 6945.3999 14023.88 4282410519
-66.760002 6945.4502 14023.88 4282410519
-58.16 6952.9199 14021.9 4282410519
-52.790001 6947.5498 14019.45 4282410519
-41.470001 6947.6899 14029.68 4282410519
-32.830002 6953.75 14023.24 4282410519
-26.790001 6942.3398 14020.43 4282410519
-21.469999 6945.0698 14024.22 4282410519
-16.139999 6945.0801 14024.22 4282410519
-11.48 6943.7202 14019.76 4282410519
-6.8200002 6942.3501 14016.98 4282410519
-0.82999998 6944.3999 14021.11 4282410519
4.4899998 6940.3398 14017.98 4282410519
9.8299999 6952.4502 14018.79 4282410519
13.82 6947.7402 14017.77 4282410519
19.16 6950.4302 14024.91 4282410519
30.459999 6943.6899 14024.88 4282410519
35.830002 6952.3901 14022.23 4282410519
39.82 6951.0298 14021.22 4282410519
45.139999 6949.6299 14016.77 4282410519
50.48 6950.96 14021.22 4282410519
56.490002 6952.2598 14020.56 4282410519
61.16 6952.8599 14018.45 4282410519
65.07 6942.7402 14023.45 4282410519
71.040001 6940.6401 14019.33 4282410519
76.370003 6941.9702 14020.43 4282410519
81.82 6952 14022.23 4282410519
85.809998 6951.29 14020.89 4282410519
90.410004 6945.8198 14018.44 4282410519
95.720001 6944.3799 14017.33 4282410519
101.05 6945.0298 14025.56 4282410519
105.66 6941.5801 14022.11 4282410519
110.53 6954.96 14023.92 4282410519
115.86 6954.2002 14024.25 4282410519
120.29 6940.6401 14017.32 4282410519
125.64 6941.9199 14021.77 4282410519
134.27 6940.3799 14018.99 4282410519
140.32001 6943.6602 14020.77 4282410519
145.62 6942.1899 14023.12 4282410519
155.09 6948.7402 14021.56 4282410519
160.42 6948.6201 14021.56 4282410519
165.67 6945.1099 14018.1 4282410519
171.69 6946.2998 14019.11 4282410519
176.34 6945.5098 14019.45 4282410519
-161.77 6964.0601 14025.71 4282410519
-157.03 6960.8198 14022.35 4282410519
-153.10001 6964.2598 14024.04 4282410519
-147.06 6963.0498 14024.71 4282410519
-141.78999 6966.5601 14026.48 4282410519
-136.39999 6964.6099 14024.04 4282410519
-131.77 6966.75 14026.48 4282410519
-127.71 6964.1001 14024.37 4282410519
-122.34 6962.8301 14018.24 4282410519
-116.3 6960.9102 14020.92 4282410519
-111.63 6961.0298 14024.36 4282410519
-107.56 6957.0298 14022.92 4282410519
-102.92 6959.1299 14028.72 4282410519
-97.540001 6955.8301 14021.91 4282410519
-92.199997 6955.8999 14023.58 4282410519
-86.900002 6958.7002 14024.02 4282410519
-78.239998 6959.4702 14023.68 4282410519
-72.230003 6959.5298 14027.04 4282410519
-66.889999 6958.9102 14025.69 4282410519
-58.27 6965.71 14022.36 4282410519
-52.889999 6961.7202 14022.69 4282410519
-46.880001 6960.4199 14025.03 4282410519
-41.529999 6957.77 14024.68 4282410519
-32.900002 6967.21 14023.37 4282410519
-26.84 6956.4702 14021.91 4282410519
-21.52 6959.2002 14025.69 4282410519
-16.17 6957.1699 14023.25 4282410519
-11.51 6957.8501 14022.92 4282410519
-6.1700001 6957.1899 14021.57 4282410519
-0.82999998 6955.1499 14017.45 4282410519
5.1799998 6967.96 14023.03 4282410519
9.8500004 6965.2402 14019.25 4282410519
13.85 6961.8701 14020.92 4282410519
19.190001 6961.8901 14022.69 4282410519
25.18 6955.8101 14020.56 4282410519
30.51 6956.4399 14023.58 4282410519
35.889999 6963.8101 14019.92 4282410519
39.889999 6963.1099 14020.25 4282410519
45.25 6967.1802 14026.81 4282410519
50.57 6963.7598 14021.68 4282410519
56.610001 6966.3901 14023.7 4282410519
61.27 6964.98 14017.57 4282410519
65.959999 6966.9902 14021.69 4282410519
71.32 6968.27 14024.38 4282410519
76.519997 6955.4199 14022.24 4282410519
81.949997 6963.4199 14019.92 4282410519
85.980003 6964.75 14022.69 4282410519
90.629997 6962.6699 14027.04 4282410519
95.910004 6958.5498 14020.57 4282410519
101.87 6955.1001 14020.56 4282410519
106.69 6965.1001 14018.91 4282410519
110.73 6967.0898 14023.03 4282410519
116.02 6964.2798 14019.25 4282410519
120.57 6956.8501 14024.68 4282410519
125.84 6953.3701 14019.55 4282410519
130.53999 6954.6299 14018.89 4282410519
134.53 6953.8799 14020.9 4282410519
140.56 6955.7798 14018.22 4282410519
145.88 6954.98 14023.58 4282410519
151.44 6964.98 14020.35 4282410519
156.02 6960.8101 14020.59 4282410519
160.67999 6960.0298 14019.24 4282410519
165.97 6957.8999 14018.57 4282410519
171.99001 6958.4199 14018.23 4282410519
176.7 6959.6802 14022.69 4282410519
-162.06 6976.1899 14024.82 4282410519
-157.36 6975.6201 14026.83 4282410519
-152.63 6973.6899 14017.68 4282410519
-147.31 6975.1802 14023.81 4282410519
-142.03 6978.6401 14025.49 4282410519
-136.67 6978.0801 14024.15 4282410519
-131.96001 6976.8301 14021.46 4282410519
-127.88 6973.5098 14018.02 4282410519
-122.61 6978.3398 14024.15 4282410519
-116.56 6976.4199 14026.83 4282410519
-111.84 6974.5 14026.15 4282410519
-107.75 6969.1499 14022.03 4282410519
-103.07 6969.2202 14023.71 4282410519
-97.769997 6972.0098 14029.17 4282410519
-92.370003 6968.6899 14024.04 4282410519
-87.050003 6970.1099 14021.7 4282410519
-78.379997 6972.27 14024.14 4282410519
-72.339996 6969.6099 14020.35 4282410519
-67.010002 6971.7202 14024.47 4282410519
-58.369999 6978.5098 14022.81 4282410519
-52.98 6972.4702 14017.34 4282410519
-46.970001 6972.5498 14024.14 4282410519
-41.599998 6969.1899 14020.69 4282410519
-32.279999 6979.3501 14022.47 4282410519
-26.9 6971.98 14027.83 4282410519
-21.549999 6969.9502 14022.03 4282410519
-16.200001 6968.6299 14021.02 4282410519
-11.53 6970.6401 14023.37 4282410519
-6.1799998 6971.3599 14024.81 4282410519
-0.16 6969.3198 14020.69 4282410519
9.8699999 6978.04 14019.7 4282410519
13.87 6971.9502 14015.91 4282410519
19.219999 6974.7002 14023.13 4282410519
25.23 6969.9399 14022.03 4282410519
31.23 6967.8999 14021.36 4282410519
35.959999 6977.98 14023.14 4282410519
39.959999 6976.5801 14020.37 4282410519
45.32 6976.5498 14020.37 4282410519
50.669998 6977.2202 14023.48 4282410519
56.700001 6978.52 14022.81 4282410519
61.389999 6978.4399 14019.36 4282410519
66.080002 6979.1201 14020.8 4282410519
71.440002 6979.73 14022.14 4282410519
76.669998 6968.8799 14024.04 4282410519
82.089996 6975.54 14019.02 4282410519
86.129997 6976.8799 14021.8 4282410519
90.75 6972.0898 14020.69 4282410519
96.089996 6971.3398 14021.03 4282410519
102.02 6965.8501 14016.9 4282410519
106.88 6977.8999 14019.36 4282410519
110.92 6979.2202 14022.14 4282410519
116.23 6976.4102 14018.35 4282410519
120.74 6966.9302 14019.68 4282410519
126.11 6968.1699 14024.04 4282410519
131.47 6968.75 14022.03 4282410519
135.41 6965.2798 14018.58 4282410519
140.82001 6968.5698 14018.67 4282410519
146.12 6966.4399 14021.36 4282410519
151.7 6977.0698 14019.36 4282410519
156.25999 6971.5898 14017.01 4282410519
160.95 6971.4902 14017.01 4282410519
166.28999 6971.3701 14020.36 4282410519
-162.28999 6986.27 14019.8 4282410519
-157.62 6987.1001 14024.58 4282410519
-152.97 6989.21 14023.58 4282410519
-147.53999 6985.9199 14020.14 4282410519
-141.62 6991.46 14024.25 4282410519
-136.86 6988.1602 14019.13 4282410519
-132.23 6990.9702 14024.59 4282410519
-128.19 6990.3701 14024.92 4282410519
-122.77 6987.0801 14016.44 4282410519
-116.71 6985.1802 14019.12 4282410519
-112 6984.5801 14021.13 4282410519
-107.95 6981.9502 14022.48 4282410519
-103.27 6982.6899 14023.82 4282410519
-97.949997 6984.8198 14027.94 4282410519
-92.5 6978.1099 14017.68 4282410519
-87.230003 6984.9702 14024.58 4282410519
-83.160004 6980.2402 14018.36 4282410519
-77.860001 6985.04 14022.81 4282410519
-72.480003 6983.75 14023.48 4282410519
-67.129997 6984.52 14024.92 4282410519
-57.799999 6989.2598 14019.13 4282410519
-52.419998 6987.29 14021.81 4282410519
-46.389999 6986.0298 14025.92 4282410519
-41.669998 6981.9902 14021.13 4282410519
-32.349998 6992.8198 14024.25 4282410519
-26.940001 6980.7202 14020.13 4282410519
-21.58 6981.4102 14019.79 4282410519
-16.23 6982.0898 14022.81 4282410519
-11.55 6983.4399 14023.82 4282410519
-6.1900001 6980.0601 14017.01 4282410519
-0.17 6981.4502 14019.79 4282410519
5.1900001 6980.77 14021.8 4282410519
9.8900003 6993.5601 14023.92 4282410519
14.57 6986.7998 14018.79 4282410519
19.93 6987.5 14023.57 4282410519
25.280001 6984.1201 14025.25 4282410519
31.290001 6981.3701 14023.15 4282410519
36.02 6989.3999 14020.81 4282410519
40.040001 6990.1001 14022.24 4282410519
46.060001 6988.6802 14019.46 4282410519
51.43 6988.6299 14021.14 4282410519
56.790001 6989.27 14017.45 4282410519
61.52 6993.2998 14023.92 4282410519
76.779999 6978.9702 14019.03 4282410519
82.25 6989.02 14019.13 4282410519
90.910004 6984.2202 14019.79 4282410519
96.25 6982.7998 14018.79 4282410519
111.09 6989.96 14018.46 4282410519
116.46 6990.5498 14019.8 4282410519
120.97 6979.73 14020.13 4282410519
127 6980.2798 14023.15 4282410519
131.66 6978.8198 14017.01 4282410519
135.69 6979.46 14020.13 4282410519
141.08 6981.3701 14019.12 4282410519
147.09 6980.5601 14022.81 4282410519
156.59 6986.3999 14019.8 4282410519
161.27 6985.6201 14018.46 4282410519
-178.81 7003.4199 14024.68 4282410519
-173.42999 7002.9199 14028.46 4282410519
-168.00999 7001.0098 14026.02 4282410519
-162.64999 7001.79 14025.69 4282410519
-157.2 6998.5298 14022.24 4282410519
-153.24001 7001.3398 14022.67 4282410519
-147.87 7001.46 14026.02 4282410519
-141.89999 7004.9399 14026.02 4282410519
-137.16 7003.02 14023.67 4282410519
-132.39999 7000.3799 14018.22 4282410519
-128.42 7003.1802 14025.35 4282410519
-123.09 7005.3301 14027.79 4282410519
-112.21 6997.3799 14021.57 4282410519
-108.15 6994.75 14022.91 4282410519
-103.44 6994.1499 14021.57 4282410519
-98.059998 6992.8501 14018.79 4282410519
-92.019997 6992.9702 14022.24 4282410519
-87.360001 6995.7202 14020.9 4282410519
-83.32 6993.75 14020.23 4282410519
-78 6997.8398 14023.24 4282410519
-67.239998 6995.27 14021.23 4282410519
-52.529999 7000.8101 14023.67 4282410519
-46.450001 6995.3999 14017.79 4282410519
-41.740002 6993.4102 14018.79 4282410519
-32.400002 7004.29 14022 4282410519
-26.32 6994.8599 14023.25 4282410519
-21.620001 6992.1602 14016.11 4282410519
-16.26 6993.52 14018.79 4282410519
-11.57 6993.52 14018.79 4282410519
-6.1999998 6994.2002 14018.46 4282410519
5.1999998 6993.5698 14022.24 4282410519
9.8999996 7002.9702 14017.54 4282410519
14.6 7000.2798 14020.56 4282410519
19.959999 6997.5801 14018.55 4282410519
25.32 6996.21 14024.25 4282410519
31.34 6992.8301 14020.9 4282410519
36.07 7000.2002 14017.21 4282410519
40.110001 7001.52 14019.89 4282410519
46.169998 7004.8799 14025.01 4282410519
51.529999 7002.1499 14023 4282410519
56.919998 7005.4702 14024.68 4282410519
61.610001 7004.0498 14020.23 4282410519
66.220001 6993.9302 14023.58 4282410519
77.599998 6992.4702 14020.9 4282410519
82.379997 6999.7598 14015.44 4282410519
87.110001 7002.4302 14020.9 4282410519
91.07 6997.02 14020.22 4282410519
96.43 6996.27 14020.56 4282410519
102.44 6994.1699 14021.57 4282410519
107.09 6991.3701 14019.46 4282410519
111.29 7002.77 14018.88 4282410519
116.68 7003.3501 14020.23 4282410519
121.19 6992.5298 14020.56 4282410519
127.22 6992.4199 14020.56 4282410519
131.86 6989.5698 14013.33 4282410519
135.92 6991.54 14019.13 4282410519
141.31 6992.7798 14016.78 4282410519
147.3 6990.6401 14017.79 4282410519
152.25999 7002.6699 14020.23 4282410519
156.88 6999.2002 14020.23 4282410519
-183.16 7015.4502 14022.07 4282410519
-173.64 7011.6299 14020.64 4282410519
-168.31 7013.8198 14026.43 4282410519
-162.95 7014.6201 14026.1 4282410519
-157.49001 7011.3398 14020.98 4282410519
-153.5 7013.4302 14021.65 4282410519
-147.47 7014.29 14026.43 4282410519
-142.09 7014.3501 14019.64 4282410519
-137.39 7015.1499 14022.75 4282410519
-132.69 7015.2402 14022.75 4282410519
-128.58 7011.9199 14017.63 4282410519
-123.26 7015.3701 14020.98 4282410519
-117.15 7011.46 14021.31 4282410519
-107.67 7007.5698 14021.66 4282410519
-102.96 7006.9702 14021.99 4282410519
-97.599998 7008.3901 14024.67 4282410519
-92.209999 7007.1099 14025.35 4282410519
-87.540001 7009.8701 14024 4282410519
-83.489998 7008.5698 14024.67 4282410519
-78.139999 7010.6499 14023.67 4282410519
-72.07 7008.7002 14023 4282410519
-67.389999 7010.7998 14027.11 4282410519
-58.029999 7016.9302 14022.41 4282410519
-52.619999 7012.9102 14022.66 4282410519
-46.540001 7009.5898 14020.98 4282410519
-41.830002 7008.27 14023.33 4282410519
-36.439999 7006.2798 14022.66 4282410519
-32.459999 7016.3799 14020.98 4282410519
-26.360001 7006.3301 14020.99 4282410519
-20.99 7007.6899 14021.99 4282410519
-15.62 7007.71 14021.99 4282410519
-10.92 7009.0601 14024.67 4282410519
-6.21 7007.7202 14020.31 4282410519
-0.17 7007.0498 14020.65 4282410519
5.21 7007.0498 14024.01 4282410519
10.6 7017.1201 14020.64 4282410519
14.62 7011.75 14018.29 4282410519
20 7011.0601 14018.63 4282410519
25.360001 7005.6201 14017.88 4282410519
31.4 7004.9199 14019.89 4282410519
36.150002 7014.3501 14018.63 4282410519
40.18 7014.3198 14020.31 4282410519
46.23 7013.6201 14017.29 4282410519
51.619999 7014.9199 14021.65 4282410519
57.009998 7016.2202 14020.98 4282410519
61.720001 7016.1899 14019.3 4282410519
66.309998 7004.0098 14018.55 4282410519
71.699997 7005.3398 14021.32 4282410519
77.739998 7005.23 14019.55 4282410519
82.559998 7015.2998 14021.32 4282410519
87.25 7013.8999 14018.63 4282410519
91.889999 7008.4302 14016.19 4282410519
97.260002 7007.6802 14018.21 4282410519
102.6 7004.9199 14017.88 4282410519
107.31 7005.5601 14022.66 4282410519
111.49 7014.8999 14017.96 4282410519
116.89 7016.1602 14020.64 4282410519
122.11 7006.6602 14021.99 4282410519
127.46 7005.2202 14020.99 4282410519
132.13 7003.75 14016.53 4282410519
136.17 7004.3398 14019.55 4282410519
141.57001 7005.5801 14017.2 4282410519
147.56 7002.77 14016.87 4282410519
152.57001 7016.8599 14021.74 4282410519
-200.2 7023.0601 14023.06 4282410519
-194.72 7019.8501 14023.07 4282410519
-188.61 7018 14022.4 4282410519
-183.53999 7030.3301 14026.59 4282410519
-179.5 7030.4302 14026.59 4282410519
-173.96001 7024.4399 14021.05 4282410519
-168.55 7023.8999 14021.38 4282410519
-163.2 7025.3701 14022.39 4282410519
-157.78 7024.1499 14021.38 4282410519
-153.81 7027.6299 14023.15 4282410519
-147.71001 7025.71 14022.39 4282410519
-142.35001 7027.1602 14020.04 4282410519
-137.63 7027.25 14021.72 4282410519
-132.91 7027.3398 14020.04 4282410519
-128.2 7027.48 14023.48 4282410519
-122.79 7026.1802 14017.36 4282410519
-117.39 7025.6099 14022.73 4282410519
-112.64 7024.3398 14023.4 4282410519
-107.81 7016.98 14015.27 4282410519
-103.14 7019.1099 14021.06 4282410519
-97.760002 7019.8501 14022.4 4282410519
-92.379997 7019.9302 14024.08 4282410519
-87.709999 7023.3901 14025.84 4282410519
-83.639999 7020.71 14022.07 4282410519
-78.279999 7023.46 14024.08 4282410519
-72.18 7019.4502 14019.29 4282410519
-67.480003 7020.21 14020.73 4282410519
-62.060001 7016.1899 14017.62 4282410519
-58.119999 7027.6802 14018.7 4282410519
-52.709999 7025.0498 14021.72 4282410519
-46.610001 7020.3398 14017.28 4282410519
-41.91 7021.75 14025.09 4282410519
-36.509998 7019.1001 14021.4 4282410519
-32.52 7029.8701 14021.05 4282410519
-26.41 7019.1001 14019.63 4282410519
-21.030001 7020.5 14022.4 4282410519
-15.64 7019.1299 14019.63 4282410519
-10.94 7021.2002 14022.07 4282410519
-6.23 7020.5298 14020.73 4282410519
-0.17 7019.8198 14019.29 4282410519
5.23 7032.6699 14024.82 4282410519
10.62 7028.5898 14018.36 4282410519
14.65 7026.5801 14022.73 4282410519
20.040001 7025.2202 14021.72 4282410519
25.41 7021.1602 14023.75 4282410519
31.459999 7019.1201 14023.08 4282410519
36.220001 7029.2202 14023.15 4282410519
40.259998 7027.8198 14022.05 4282410519
46.32 7027.77 14020.38 4282410519
51.709999 7027.75 14022.05 4282410519
57.099998 7027.02 14017.36 4282410519
62.540001 7032.3999 14024.82 4282410519
66.559998 7030.2998 14020.71 4282410519
72.629997 7030.96 14022.14 4282410519
77.900002 7019.4302 14022.74 4282410519
82.699997 7026.77 14019.04 4282410519
87.440002 7028.77 14023.15 4282410519
92.099998 7023.9702 14022.06 4282410519
97.440002 7020.4902 14016.94 4282410519
102.78 7017.7202 14018.29 4282410519
107.67 7029.1201 14019.37 4282410519
111.72 7029.73 14020.71 4282410519
122.32 7018.7998 14021.06 4282410519
127.65 7015.9702 14017.29 4282410519
132.39999 7017.8999 14019.63 4282410519
136.46001 7019.21 14024.08 4282410519
141.86 7019.7798 14020.39 4282410519
147.86 7016.9199 14019.97 4282410519
-206.14 7041.8101 14025.55 4282410519
-200.57001 7035.9199 14023.55 4282410519
-195.02 7030.6001 14019.36 4282410519
-189.05 7034.2202 14027.92 4282410519
-183.81 7040.4102 14021.53 4282410519
-179.74001 7039.79 14020.1 4282410519
-174.31 7038.6401 14024.21 4282410519
-168.86 7036.71 14021.78 4282410519
-162.84 7038.9199 14022.54 4282410519
-158.08 7037.6802 14023.21 4282410519
-154.05 7038.3999 14019.43 4282410519
-147.95 7037.1802 14020.1 4282410519
-142.60001 7039.9702 14020.44 4282410519
-137.25999 7042.8101 14025.89 4282410519
-133.17999 7041.54 14023.21 4282410519
-128.45 7040.9702 14025.22 4282410519
-123.05 7041.0601 14021.87 4282410519
-117.61 7039.1401 14024.55 4282410519
-112.17 7036.5 14022.46 4282410519
-108.11 7035.9302 14027.92 4282410519
-103.34 7032.5898 14022.8 4282410519
-97.919998 7031.2798 14020.03 4282410519
-92.540001 7032.0698 14023.14 4282410519
-87.839996 7034.1499 14022.13 4282410519
-83.779999 7032.8501 14021.13 4282410519
-72.330002 7033.6499 14020.79 4282410519
-66.93 7033.71 14022.47 4282410519
-62.209999 7033.0801 14024.48 4282410519
-58.23 7041.1699 14020.44 4282410519
-52.799999 7037.8599 14020.44 4282410519
-46.709999 7034.54 14020.45 4282410519
-41.290001 7030.5 14017.35 4282410519
-36.57 7029.8501 14017.69 4282410519
-32.580002 7044.0801 14024.21 4282410519
-26.450001 7030.5698 14017.35 4282410519
-21.07 7033.3198 14021.13 4282410519
-15.67 7031.9399 14020.03 4282410519
-10.96 7034.02 14022.47 4282410519
-6.2399998 7034.02 14022.47 4282410519
-0.17 7033.3501 14021.13 4282410519
5.9099998 7044.8198 14023.87 4282410519
10.63 7040.73 14017.42 4282410519
14.67 7037.3701 14019.1 4282410519
20.07 7035.9702 14018.01 4282410519
26.129999 7032.5801 14019.7 4282410519
31.52 7031.9302 14021.8 4282410519
36.959999 7040.6602 14020.77 4282410519
41 7039.96 14019.43 4282410519
46.419998 7041.9902 14023.54 4282410519
51.810001 7041.2798 14023.88 4282410519
57.900002 7042.5698 14023.21 4282410519
62.630001 7043.2002 14021.19 4282410519
66.669998 7041.77 14018.42 4282410519
72.730003 7040.3198 14015.65 4282410519
78 7028.8398 14016.35 4282410519
83.540001 7040.98 14022.2 4282410519
87.559998 7038.8599 14018.09 4282410519
92.220001 7033.3799 14015.67 4282410519
97.610001 7032.6299 14016 4282410519
103 7032.6001 14022.8 4282410519
108.55 7042.6401 14021.19 4282410519
112.57 7040.5098 14017.08 4282410519
122.52 7030.2202 14018.69 4282410519
127.91 7030.1201 14020.37 4282410519
132.66 7032.1001 14022.8 4282410519
136.72 7032.6899 14024.14 4282410519
142.73 7029.7998 14013.57 4282410519
-205.64 7047.9302 14024.27 4282410519
-184.11 7051.8301 14017.46 4282410519
-180.10001 7054 14023.25 4282410519
-173.95 7051.48 14024.6 4282410519
-169.17 7049.5298 14022.17 4282410519
-163.17999 7053.7598 14026.94 4282410519
-158.39999 7051.8398 14026.28 4282410519
-154.38 7053.2798 14023.92 4282410519
-142.88 7053.46 14020.48 4282410519
-137.47 7053.6299 14022.24 4282410519
-133.41 7053.71 14022.24 4282410519
-128.64 7051.73 14021.49 4282410519
-112.36 7048.6401 14021.5 4282410519
-108.26 7046.0098 14022.86 4282410519
-103.51 7044.7402 14021.85 4282410519
-98.129997 7046.1602 14022.86 4282410519
-92.699997 7044.21 14022.19 4282410519
-87.989998 7045.5698 14018.07 4282410519
-83.910004 7043.6001 14017.41 4282410519
-78.550003 7047.0801 14020.84 4282410519
-72.459999 7046.4702 14021.18 4282410519
-67.050003 7045.8501 14019.84 4282410519
-62.290001 7042.48 14018.08 4282410519
-58.349998 7056.0698 14024.92 4282410519
-52.91 7051.3599 14022.17 4282410519
-46.799999 7048.0298 14022.18 4282410519
-41.380001 7046.7202 14022.86 4282410519
-36.630001 7041.9902 14016.74 4282410519
-32.639999 7056.2202 14023.25 4282410519
-26.51 7046.1201 14023.19 4282410519
-21.110001 7045.46 14020.18 4282410519
-15.7 7044.0898 14019.08 4282410519
-10.98 7046.1602 14021.52 4282410519
-6.25 7044.77 14018.75 4282410519
-0.17 7046.8398 14022.86 4282410519
10.66 7056.9702 14024.59 4282410519
14.7 7051.54 14020.49 4282410519
20.110001 7050.1802 14021.17 4282410519
26.18 7045.4502 14020.18 4282410519
31.57 7043.3599 14019.42 4282410519
37.02 7051.46 14017.13 4282410519
41.080002 7053.46 14021.15 4282410519
46.470001 7050.6802 14015.7 4282410519
51.889999 7052.04 14020.15 4282410519
57.990002 7054.0098 14020.81 4282410519
72.879997 7055.2002 14020.14 4282410519
78.169998 7043.7202 14020.85 4282410519
83.690002 7053.75 14020.81 4282410519
87.720001 7051.6802 14018.47 4282410519
92.43 7049.6001 14022.84 4282410519
97.900002 7053.5498 14019.14 4282410519
103.85 7044.73 14021.85 4282410519
108.74 7054.7402 14020.14 4282410519
112.78 7054 14018.8 4282410519
118.22 7055.3101 14021.57 4282410519
122.73 7042.3599 14017.74 4282410519
128.14 7042.98 14020.85 4282410519
132.88 7043.52 14018.75 4282410519
136.97 7045.5098 14024.54 4282410519
-216.12 7058.3799 14020.54 4282410519
-210.7 7058.54 14018.86 4282410519
-205.98 7059.3501 14021.88 4282410519
-195.77 7057.6201 14021.22 4282410519
-189.66 7057.1201 14023.23 4282410519
-184.49001 7066.7202 14021.94 4282410519
-180.36 7064.0898 14018.17 4282410519
-174.28 7064.9702 14026.31 4282410519
-169.48 7062.3501 14020.86 4282410519
-163.45 7065.23 14024.63 4282410519
-158.69 7064.6699 14026.65 4282410519
-153.92 7063.3701 14018.84 4282410519
-148.52 7064.21 14023.63 4282410519
-143.14 7066.2998 14020.84 4282410519
-137.67999 7064.3799 14018.5 4282410519
-132.96001 7065.8198 14021.18 4282410519
-128.89 7065.2202 14021.52 4282410519
-123.51 7067.3901 14023.95 4282410519
-117.33 7062.73 14021.2 4282410519
-112.51 7058.04 14015.09 4282410519
-108.47 7059.5098 14024.57 4282410519
-103.73 7059.5801 14024.57 4282410519
-98.309998 7058.98 14023.23 4282410519
-92.860001 7056.3599 14021.23 4282410519
-87.5 7060.4702 14022.56 4282410519
-78.769997 7066.6299 14021.18 4282410519
-72.599998 7060.6401 14024.24 4282410519
-67.169998 7058.6699 14020.22 4282410519
-62.419998 7056.7002 14021.23 4282410519
-58.450001 7068.23 14023.95 4282410519
-53.009998 7064.8999 14023.97 4282410519
-46.939999 7068.9902 14025.29 4282410519
-41.450001 7058.8701 14021.89 4282410519
-36.700001 7056.1602 14019.8 4282410519
-32.689999 7067.6699 14020.84 4282410519
-26.559999 7057.6001 14020.89 4282410519
-21.139999 7057.5698 14019.13 4282410519
-15.73 7059.6499 14023.23 4282410519
-11 7059.6602 14023.23 4282410519
-5.5799999 7056.9199 14017.79 4282410519
-0.17 7056.9199 14017.79 4282410519
5.9200001 7058.9902 14025.25 4282410519
20.139999 7061.6499 14018.86 4282410519
26.219999 7056.2002 14016.45 4282410519
32.299999 7054.8301 14017.12 4282410519
37.09 7066.2998 14021.52 4282410519
41.16 7066.2798 14021.52 4282410519
46.57 7064.8999 14018.84 4282410519
51.990002 7065.54 14021.86 4282410519
58.099998 7066.8301 14019.5 4282410519
62.849998 7068.1299 14020.51 4282410519
78.330002 7058.5601 14025.25 4282410519
83.839996 7065.8999 14019.84 4282410519
87.889999 7065.1802 14018.5 4282410519
92.580002 7060.3999 14019.2 4282410519
97.980003 7059.6602 14019.54 4282410519
104.03 7056.8799 14020.89 4282410519
112.99 7066.8301 14019.17 4282410519
118.46 7069.48 14024.62 4282410519
123 7057.9199 14023.57 4282410519
128.39 7056.48 14022.57 4282410519
-211.12 7072.71 14020.23 4282410519
-206.35001 7072.1802 14022.24 4282410519
-196.09 7069.0498 14018.82 4282410519
-189.36 7071.3599 14026.37 4282410519
-184.87 7080.9102 14024.97 4282410519
-180.72 7078.27 14021.2 4282410519
-174.5 7073.6499 14016.78 4282410519
-169.82001 7076.5698 14023.99 4282410519
-163.71001 7076.6602 14022.22 4282410519
-158.96001 7076.8198 14025.67 4282410519
-154.21001 7076.8701 14020.54 4282410519
-143.41 7079.8398 14022.63 4282410519
-138 7080.6299 14025.65 4282410519
-133.23 7080.04 14024.31 4282410519
-129.10001 7076.7002 14019.21 4282410519
-123.71 7078.8198 14021.54 4282410519
-117.55 7076.23 14022.9 4282410519
-112.74 7072.2202 14018.14 4282410519
-108.67 7072.3301 14023.26 4282410519
-103.9 7071.0601 14022.26 4282410519
-98.489998 7071.8101 14023.6 4282410519
-93.040001 7069.8599 14021.26 4282410519
-87.699997 7077.3301 14019.21 4282410519
-78.150002 7072.73 14019.9 4282410519
-67.300003 7072.1699 14021.92 4282410519
-62.540001 7070.2002 14022.94 4282410519
-57.880001 7081.0601 14022.63 4282410519
-52.419998 7077.02 14022.9 4282410519
-41.509998 7068.9502 14016.82 4282410519
-36.77 7069.7002 14021.6 4282410519
-32.07 7079.8301 14019.87 4282410519
-26.6 7070.4199 14021.26 4282410519
-21.190001 7072.46 14023.6 4282410519
-15.76 7070.4102 14019.49 4282410519
-11.02 7073.1602 14024.94 4282410519
-5.5900002 7071.8101 14020.58 4282410519
0.50999999 7072.4902 14023.6 4282410519
5.9299998 7070.4702 14022.94 4282410519
10.7 7081.2402 14020.86 4282410519
14.76 7077.8701 14022.56 4282410519
20.860001 7076.5 14021.56 4282410519
26.27 7071.77 14022.26 4282410519
32.360001 7069 14020.17 4282410519
37.150002 7076.3799 14014.76 4282410519
41.23 7079.1099 14021.88 4282410519
46.669998 7080.4702 14022.97 4282410519
52.09 7079.0801 14023.65 4282410519
62.959999 7080.29 14019.53 4282410519
67.580002 7066.73 14016.16 4282410519
73.010002 7067.3501 14017.49 4282410519
83.980003 7078.0498 14018.87 4282410519
88.050003 7078 14018.87 4282410519
92.779999 7075.9302 14023.24 4282410519
98.150002 7071.7598 14018.48 4282410519
104.2 7068.2998 14016.82 4282410519
108.94 7067.5601 14018.83 4282410519
113.18 7078.9902 14018.19 4282410519
118.61 7078.8999 14018.19 4282410519
123.22 7070.75 14023.94 4282410519
-222.33 7083.8501 14021.26 4282410519
-216.3 7086.79 14025.02 4282410519
-211.50999 7085.5298 14020.58 4282410519
-206.73 7085 14022.6 4282410519
-201.33 7086.5098 14021.92 4282410519
-195.97 7089.3501 14022.23 4282410519
-189.64999 7082.1099 14020.94 4282410519
-185.13 7090.9902 14019.87 4282410519
-180.44 7093.8599 14025.32 4282410519
-174.92 7090.6299 14025.34 4282410519
-169.48 7090.77 14027.02 4282410519
-163.96001 7087.46 14018.56 4282410519
-158.52 7087.5898 14020.24 4282410519
-154.57001 7093.1299 14026 4282410519
-149.03 7088.4702 14019.9 4282410519
-138.19 7090.71 14020.55 4282410519
-133.47 7092.8799 14024.66 4282410519
-129.38 7092.2798 14025 4282410519
-123.97 7093.7202 14024.32 4282410519
-117.8 7091.1401 14025.68 4282410519
-113.01 7089.1899 14025.02 4282410519
-108.85 7084.4902 14022.28 4282410519
-104.08 7083.21 14021.28 4282410519
-98.650002 7083.29 14021.28 4282410519
-93.199997 7081.9702 14020.19 4282410519
-87.769997 7082.7002 14016.49 4282410519
-83.709999 7084.1499 14020.94 4282410519
-78.300003 7085.5601 14020.26 4282410519
-72.239998 7091.02 14020.9 4282410519
-67.5 7093.1401 14025 4282410519
-62.740002 7093.1201 14018.2 4282410519
-57.990002 7094.5698 14024.32 4282410519
-52.5 7088.4902 14020.58 4282410519
-46.369999 7085.8398 14020.26 4282410519
-41.59 7081.1001 14015.84 4282410519
-36.860001 7085.23 14025.64 4282410519
-32.139999 7094.73 14024.32 4282410519
-26.65 7083.25 14021.62 4282410519
-21.219999 7083.2202 14019.85 4282410519
-15.79 7083.96 14021.28 4282410519
-11.04 7085.3101 14022.28 4282410519
-5.5999999 7085.3198 14022.28 4282410519
0.50999999 7084.6499 14022.62 4282410519
5.9499998 7093.3999 14018.2 4282410519
10.72 7094.79 14022.64 4282410519
15.47 7092.1001 14025.68 4282410519
20.9 7087.2598 14017.81 4282410519
26.32 7083.9199 14021.28 4282410519
32.419998 7081.1602 14019.19 4282410519
37.23 7091.96 14020.55 4282410519
41.290001 7088.5098 14015.45 4282410519
47.419998 7090.54 14017.88 4282410519
52.880001 7093.9399 14026.34 4282410519
58.310001 7091.8101 14018.88 4282410519
63.080002 7093.7998 14019.53 4282410519
67.860001 7095.1499 14022.3 4282410519
73.300003 7095.1001 14022.3 4282410519
79.269997 7081.46 14018.85 4282410519
84.150002 7092.23 14021.89 4282410519
88.239998 7093.5801 14024.66 4282410519
92.910004 7086.0098 14018.15 4282410519
98.360001 7086.6602 14021.26 4282410519
104.42 7083.2002 14021.28 4282410519
113.44 7095.25 14023.64 4282410519
-222.03 7096.0298 14020.26 4282410519
-216.72 7100.2998 14026.7 4282410519
-211.31 7101.8101 14027.7 4282410519
-207.14 7099.23 14025.71 4282410519
-201.71001 7100.0098 14023.59 4282410519
-196.16 7096.1201 14022.28 4282410519
-190.17999 7101.6802 14022.91 4282410519
-185.52 7105.8999 14024.31 4282410519
-180.73 7105.3398 14022.98 4282410519
-175.2 7102.0601 14022.91 4282410519
-169.7 7100.1699 14020.58 4282410519
-164.32001 7103.0498 14024.34 4282410519
-158.81 7100.4199 14020.58 4282410519
-154.86 7106.6401 14027.67 4282410519
-148.63 7101.9902 14021.57 4282410519
-143.21001 7103.4399 14019.21 4282410519
-138.5 7106.2998 14026.33 4282410519
-133.69 7104.3101 14020.55 4282410519
-124.17 7105.1602 14021.89 4282410519
-118 7103.2998 14024.68 4282410519
-113.18 7099.9502 14021.26 4282410519
-108.47 7104.0698 14022.57 4282410519
-103.59 7096.0498 14021.63 4282410519
-98.849998 7098.1499 14025.64 4282410519
-92.730003 7098.2798 14027.41 4282410519
-88.010002 7101.7202 14029.06 4282410519
-83.919998 7101.7002 14018.9 4282410519
-78.449997 7099.0698 14021.94 4282410519
-72.309998 7097.79 14020.94 4282410519
-67.559998 7099.9102 14026.73 4282410519
-58.07 7103.9702 14017.88 4282410519
-52.599998 7102.0098 14022.26 4282410519
-46.450001 7098.6699 14020.6 4282410519
-41.689999 7098.7202 14025.64 4282410519
-36.91 7095.3198 14020.54 4282410519
-32.189999 7106.8398 14021.55 4282410519
-26.030001 7097.4399 14022.96 4282410519
-21.26 7095.3701 14017.18 4282410519
-15.82 7096.79 14021.63 4282410519
-10.38 7102.8599 14020.24 4282410519
-5.6199999 7102.8599 14018.56 4282410519
5.9699998 7107.5898 14021.21 4282410519
15.49 7101.5 14019.24 4282410519
20.940001 7102.1699 14022.26 4282410519
26.360001 7096.04 14020.2 4282410519
32.48 7094.6602 14019.2 4282410519
37.299999 7104.7998 14020.89 4282410519
41.360001 7101.3398 14015.79 4282410519
47.5 7103.3799 14018.22 4282410519
52.950001 7103.3501 14019.9 4282410519
58.419998 7106 14021.89 4282410519
63.200001 7106.6299 14019.87 4282410519
73.43 7107.9399 14022.63 4282410519
79.43 7095.6899 14021.97 4282410519
89.080002 7105.7402 14023.66 4282410519
93.080002 7098.8398 14018.49 4282410519
99.199997 7098.8101 14020.26 4282410519
-228.46001 7105.3101 14022.29 4282410519
-222.53999 7112.2998 14027.37 4282410519
-217.02 7110.3799 14021.59 4282410519
-207.47 7110.6602 14021.59 4282410519
-202.03999 7111.4902 14019.57 4282410519
-196.53 7109.6299 14023.95 4282410519
-190.39 7109.8101 14025.63 4282410519
-185.17 7118.75 14024.64 4282410519
-181.03999 7117.46 14021.88 4282410519
-175.50999 7114.8999 14023.24 4282410519
-169.94 7110.25 14015.47 4282410519
-164.58 7114.48 14020.22 4282410519
-159.11 7113.9399 14022.25 4282410519
-155.10001 7117.4502 14023.98 4282410519
-148.87 7113.4702 14019.23 4282410519
-143.50999 7118.3599 14023.64 4282410519
-138.69 7116.3799 14019.54 4282410519
-133.96001 7118.5498 14023.64 4282410519
-129.81 7115.8799 14021.56 4282410519
-124.4 7118.7202 14023.64 4282410519
-118.19 7114.73 14022.25 4282410519
-113.37 7112.1099 14020.25 4282410519
-108.55 7109.4902 14021.62 4282410519
-103.86 7114.9502 14020.57 4282410519
-98.410004 7115.71 14021.9 4282410519
-92.860001 7108.3799 14022.29 4282410519
-88.120003 7111.1299 14022.62 4282410519
-83.989998 7107.7402 14017.51 4282410519
-78.589996 7112.5898 14023.61 4282410519
-72.449997 7111.98 14023.95 4282410519
-67.669998 7111.3501 14022.62 4282410519
-62.869999 7107.9902 14020.87 4282410519
-58.189999 7118.8501 14022.22 4282410519
-52.709999 7116.2002 14023.58 4282410519
-46.540001 7111.5098 14020.94 4282410519
-41.790001 7116.27 14021.9 4282410519
-36.290001 7106.8101 14018.19 4282410519
-32.240002 7117.6499 14017.86 4282410519
-20.639999 7116.3599 14021.9 4282410519
-15.19 7117.0498 14023.24 4282410519
-10.39 7110.3101 14021.62 4282410519
-5.6199999 7107.5601 14016.18 4282410519
0.50999999 7115.0298 14019.23 4282410519
11.43 7118.3901 14019.2 4282410519
15.52 7115.7002 14022.25 4282410519
20.98 7114.3301 14021.25 4282410519
32.540001 7107.5098 14019.53 4282410519
41.450001 7116.9302 14019.88 4282410519
47.610001 7119.6602 14025.32 4282410519
53.040001 7115.5098 14018.89 4282410519
58.52 7118.1699 14020.88 4282410519
63.279999 7116.0298 14013.42 4282410519
68.099998 7120.8301 14022.96 4282410519
73.540001 7118.6899 14018.86 4282410519
79.580002 7109.2202 14023.63 4282410519
84.440002 7116.5498 14019.88 4282410519
89.199997 7115.8198 14018.55 4282410519
-222.88 7123.0498 14023.59 4282410519
-217.39 7122.54 14020.57 4282410519
-211.97 7124.0498 14021.57 4282410519
-207.78999 7121.4199 14017.81 4282410519
-202.46001 7126.4102 14023.99 4282410519
-196.87 7121.79 14022.94 4282410519
-190.72 7121.9702 14024.62 4282410519
-181.39 7131.02 14023.62 4282410519
-175.78 7125.71 14019.55 4282410519
-170.28 7124.4399 14018.46 4282410519
-164.87 7126.6401 14019.2 4282410519
-159.35001 7124.6899 14018.46 4282410519
-155.41 7131.6499 14026.97 4282410519
-149.17 7127.6699 14022.22 4282410519
-143.78 7131.8799 14023.62 4282410519
-138.92 7127.8101 14017.09 4282410519
-134.19 7130.71 14022.62 4282410519
-129.34 7127.3701 14019.2 4282410519
-123.94 7131.5801 14023.96 4282410519
-118.38 7126.2202 14019.89 4282410519
-112.87 7123.5601 14017.81 4282410519
-108.76 7123.0098 14023.28 4282410519
-103.97 7122.3999 14021.94 4282410519
-98.5 7121.7598 14020.51 4282410519
-92.980003 7117.7402 14015.75 4282410519
-88.300003 7125.3198 14023.93 4282410519
-84.160004 7121.9399 14020.51 4282410519
-78.730003 7124.75 14020.92 4282410519
-72.57 7123.46 14021.6 4282410519
-67.800003 7124.8701 14024.27 4282410519
-58.299999 7133.1001 14025.29 4282410519
-52.799999 7129.0898 14023.99 4282410519
-46.610001 7122.9502 14018.49 4282410519
-41.150002 7123.7202 14023.28 4282410519
-36.360001 7122.4199 14023.96 4282410519
-32.299999 7131.8501 14020.85 4282410519
-26.139999 7127.8198 14019.55 4282410519
-20.65 7123.1299 14021.94 4282410519
-15.2 7122.4902 14022.28 4282410519
-10.41 7122.4302 14020.51 4282410519
-5.6300001 7123.1602 14021.94 4282410519
0.50999999 7120.3999 14016.5 4282410519
5.98 7122.5098 14023.96 4282410519
11.46 7133.3101 14021.94 4282410519
15.55 7128.54 14020.88 4282410519
21.01 7126.5 14020.23 4282410519
26.459999 7121.0298 14017.84 4282410519
32.59 7118.9902 14017.18 4282410519
37.419998 7128.3999 14017.44 4282410519
42.200001 7128.3701 14017.44 4282410519
47.68 7129.7402 14020.2 4282410519
53.130001 7127.6201 14017.78 4282410519
59.290001 7128.9199 14017.09 4282410519
64.110001 7132.3101 14020.51 4282410519
74.349998 7130.8501 14017.84 4282410519
79.699997 7119.98 14019.85 4282410519
84.610001 7131.48 14022.62 4282410519
89.389999 7130.6899 14021.19 4282410519
-197.24001 7135.3101 14022.9 4282410519
-190.97 7131.3799 14018.15 4282410519
-185.89 7146.52 14027.67 4282410519
-181.64 7141.1001 14018.48 4282410519
-175.45 7139.9199 14020.85 4282410519
-170.64 7139.3599 14021.19 4282410519
-164.53999 7142.27 14024.95 4282410519
-159.64 7137.5801 14018.86 4282410519
-155.67 7143.8198 14025.94 4282410519
-149.42 7139.8398 14021.19 4282410519
-143.98 7141.96 14018.48 4282410519
-138.52 7142.7598 14021.5 4282410519
-134.41 7142.8398 14021.5 4282410519
-129.66 7145.02 14027.28 4282410519
-124.14 7143.02 14021.5 4282410519
-118.6 7139.0601 14020.2 4282410519
-113.11 7138.4902 14022.22 4282410519
-108.96 7135.8701 14023.58 4282410519
-104.17 7135.9399 14023.58 4282410519
-98.690002 7136.02 14023.58 4282410519
-93.269997 7140.1201 14021.53 4282410519
-88.419998 7135.3999 14018.8 4282410519
-84.32 7135.52 14022.25 4282410519
-78.860001 7136.1899 14018.46 4282410519
-67.220001 7136.3701 14021.91 4282410519
-62.48 7141.1299 14022.87 4282410519
-58.380001 7142.5 14018.83 4282410519
-52.880001 7139.1699 14018.86 4282410519
-46.709999 7138.5601 14022.56 4282410519
-41.209999 7133.1401 14016.81 4282410519
-36.450001 7139.9502 14020.2 4282410519
-32.360001 7143.3398 14018.48 4282410519
-26.16 7133.8999 14019.82 4282410519
-20.68 7131.1401 14012.71 4282410519
-15.22 7134.6001 14019.48 4282410519
-10.43 7133.9302 14018.15 4282410519
-5.6399999 7135.27 14019.15 4282410519
0.51999998 7134.6201 14019.48 4282410519
5.9899998 7133.9902 14021.59 4282410519
11.48 7144.7598 14019.48 4282410519
15.58 7140.02 14018.52 4282410519
21.049999 7138.6099 14017.43 4282410519
27.200001 7137.3301 14024.92 4282410519
32.689999 7139.29 14018.86 4282410519
38.18 7143.3301 14021.84 4282410519
42.299999 7144.0298 14023.27 4282410519
47.77 7143.2598 14020.16 4282410519
53.23 7140.5098 14018.17 4282410519
59.400002 7141.7598 14015.72 4282410519
68.209999 7132.2598 14018.83 4282410519
79.919998 7139.6001 14020.2 4282410519
85.440002 7143.5898 14021.5 4282410519
-171 7154.2998 14025.58 4282410519
-164.77 7152.3501 14019.81 4282410519
-159.97 7152.46 14021.49 4282410519
-155.89 7153.8901 14019.12 4282410519
-149.7 7153.3701 14022.82 4282410519
-144.3 7157.5801 14024.21 4282410519
-138.72 7152.8301 14016.36 4282410519
-133.99001 7157.1099 14024.55 4282410519
-129.84 7155.1001 14022.14 4282410519
-124.38 7156.5498 14021.45 4282410519
-118.14 7153.2798 14021.49 4282410519
-113.3 7150.6499 14021.18 4282410519
-109.16 7149.3901 14023.54 4282410519
-104.36 7148.79 14023.88 4282410519
-98.860001 7148.1899 14022.54 4282410519
-93.339996 7144.8198 14017.45 4282410519
-87.900002 7148.2598 14019.1 4282410519
-84.470001 7148.3701 14022.54 4282410519
-79.040001 7152.5298 14025.62 4282410519
-72.830002 7149.1802 14022.2 4282410519
-67.330002 7147.8198 14019.44 4282410519
-62.52 7145.8501 14020.47 4282410519
-58.5 7157.3901 14021.45 4282410519
-52.990002 7154.79 14024.59 4282410519
-32.419998 7156.1899 14018.78 4282410519
-26.209999 7146.0601 14018.79 4282410519
-20.73 7148.8398 14022.54 4282410519
-15.25 7147.4502 14019.78 4282410519
-10.45 7146.0898 14017.11 4282410519
-4.9699998 7148.1401 14019.44 4282410519
0.51999998 7148.8701 14022.54 4282410519
6.6799998 7151.54 14019.5 4282410519
11.5 7156.9302 14018.43 4282410519
15.6 7152.8701 14018.81 4282410519
21.09 7152.8701 14020.49 4282410519
27.24 7148.1401 14021.21 4282410519
32.720001 7146.77 14021.9 4282410519
38.25 7155.4902 14019.12 4282410519
42.360001 7154.79 14019.46 4282410519
47.849998 7155.4302 14019.12 4282410519
53.34 7155.3999 14020.8 4282410519
59.529999 7156.7002 14020.11 4282410519
64.279999 7151.25 14019.5 4282410519
69.099998 7153.25 14023.51 4282410519
74.559998 7150.4302 14018.07 4282410519
79.989998 7146.3398 14020.13 4282410519
-134.25 7170.6401 14024.49 4282410519
-130.05 7166.5898 14019.75 4282410519
-124.58 7168.0298 14019.06 4282410519
-118.33 7164.77 14019.1 4282410519
-113.56 7166.96 14026.55 4282410519
-109.33 7160.1602 14019.73 4282410519
-104.55 7162.3301 14025.5 4282410519
-99.040001 7161.04 14022.83 4282410519
-93.550003 7161.1299 14024.51 4282410519
-88.050003 7160.4399 14018.05 4282410519
-84.629997 7161.8999 14022.49 4282410519
-79.120003 7160.52 14016.38 4282410519
-72.970001 7162.71 14023.83 4282410519
-67.489998 7164.1802 14026.59 4282410519
-58.599998 7168.8799 14019.06 4282410519
-53.080002 7166.9199 14023.45 4282410519
-46.860001 7160.7998 14016.38 4282410519
-41.349998 7158.1499 14016.07 4282410519
-36.549999 7158.8701 14019.08 4282410519
-31.799999 7171.8101 14022.81 4282410519
-26.27 7162.3599 14024.17 4282410519
-20.76 7158.9199 14017.4 4282410519
-15.28 7160.2998 14020.07 4282410519
-10.47 7161.71 14021.15 4282410519
-4.98 7162.3999 14022.49 4282410519
1.2 7159.6401 14018.74 4282410519
6.6999998 7172.5498 14022.47 4282410519
11.52 7171.1499 14021.38 4282410519
15.63 7165 14017.67 4282410519
21.129999 7165.7202 14020.78 4282410519
27.290001 7159.5801 14018.74 4282410519
33.459999 7158.21 14019.42 4282410519
38.32 7169.71 14022.07 4282410519
42.43 7166.96 14018.41 4282410519
47.93 7166.8701 14016.64 4282410519
53.43 7167.5698 14019.75 4282410519
59.639999 7170.23 14021.73 4282410519
64.459999 7171.54 14021.04 4282410519
69.269997 7171.4902 14021.04 4282410519
74.769997 7171.4399 14021.04 4282410519
80.120003 7157.8301 14017.75 4282410519
-113.72 7177.04 14021.4 4282410519
-109.53 7173.7402 14021.43 4282410519
-99.199997 7172.4902 14020.35 4282410519
-93.709999 7173.2998 14023.46 4282410519
-88.239998 7176.0698 14023.76 4282410519
-84.07 7172.6699 14018.67 4282410519
-78.599998 7175.4902 14020.74 4282410519
-73.099998 7176.2402 14023.76 4282410519
-67.57 7173.5298 14020.01 4282410519
-62.740002 7171.54 14019.36 4282410519
-58.02 7183.1099 14022 4282410519
-52.490002 7180.46 14023.38 4282410519
-46.25 7172.9902 14015.31 4282410519
-41.419998 7170.2798 14014.92 4282410519
-36.630001 7173.8198 14023.46 4282410519
-31.85 7182.5801 14018.98 4282410519
-26.309999 7172.4399 14019.02 4282410519
-20.799999 7172.4502 14017.34 4282410519
-10.48 7173.1602 14018.67 4282410519
-4.98 7173.8501 14020.01 4282410519
1.2 7174.5801 14021.43 4282410519
6.71 7185.4199 14022.73 4282410519
11.54 7183.3198 14020.32 4282410519
15.66 7179.9502 14022.04 4282410519
21.85 7178.5801 14021.05 4282410519
27.34 7173.1099 14018.67 4282410519
33.529999 7173.8398 14023.46 4282410519
38.380001 7180.52 14018.34 4282410519
42.509998 7180.4902 14018.34 4282410519
48.02 7181.1401 14019.67 4282410519
59.75 7183.1001 14022 4282410519
64.559998 7182.3501 14017.3 4282410519
-93.879997 7186.8501 14025.06 4282410519
-88.370003 7186.8301 14018.25 4282410519
-78.730003 7186.9399 14018.25 4282410519
-72.519997 7186.3301 14018.59 4282410519
-67.720001 7188.48 14022.69 4282410519
-62.860001 7185.0898 14020.96 4282410519
-58.110001 7193.9199 14018.25 4282410519
-52.580002 7191.96 14020.97 4282410519
-46.349998 7187.9102 14019.58 4282410519
-41.52 7188 14023.03 4282410519
-36.68 7183.8999 14018.29 4282410519
-31.91 7194.7598 14017.91 4282410519
-26.35 7185.2998 14019.29 4282410519
-20.85 7188.7798 14024.37 4282410519
-15.33 7186.02 14020.62 4282410519
-10.51 7187.4302 14021.7 4282410519
-4.9899998 7187.4399 14021.7 4282410519
1.2 7188.8101 14024.37 4282410519
11.56 7197.6001 14023.34 4282410519
16.379999 7190.7002 14016.53 4282410519
21.889999 7190.0298 14018.56 4282410519
