# .PCD v0.7 - Point Cloud Data file format
VERSION 0.7
FIELDS x y z rgb
SIZE 4 4 4 4
TYPE F F F U
COUNT 1 1 1 1
WIDTH 287
HEIGHT 1
VIEWPOINT 0 0 0 1 0 0 0
POINTS 287
DATA ascii
-2335.6599 9177.6699 14217.13 4292596811
-2287.8101 9184.6299 14211.17 4292596811
-2279.1899 9183.8096 14211.29 4292596811
-2271.5801 9183.2803 14209.24 4292596811
-2264.8799 9182.6104 14208.82 4292596811
-2309.6599 9189.6904 14204.36 4292596811
-2304.0601 9197.2197 14213.26 4292596811
-2297.54 9193.6396 14205.69 4292596811
-2290.6899 9196.21 14206.94 4292596811
-2282.0601 9195.3896 14207.06 4292596811
-2275.24 9198.0898 14210.01 4292596811
-2268.54 9197.4805 14209.67 4292596811
-2307.3201 9210.2695 14209.81 4292596811
-2301.6599 9210.1299 14209.02 4292596811
-2293.78 9208.5996 14203.95 4292596811
-2286.3501 9212.6904 14211.63 4292596811
-2278.1101 9209.6797 14205.77 4292596811
-2271.1899 9208.21 14204.1 4292596811
-2267.73 9220.7998 14202.01 4292596811
-2261.72 9226.8496 14210.12 4292596811
-2317.54 9221.0303 14208.51 4292596811
-2311.25 9225.9502 14211.87 4292596811
-2305.3601 9224.9502 14209.75 4292596811
-2299.3201 9230.8701 14216.15 4292596811
-2291.3601 9232.8496 14208.81 4292596811
-2282.3501 9226.8398 14208.63 4292596811
-2275.26 9224.71 14207.42 4292596811
-2273.02 9242.2803 14212.96 4292596811
-2264.55 9238.3896 14205.78 4292596811
-2257.1699 9238.96 14208.38 4292596811
-2250.21 9241.1904 14206.23 4292596811
-2244.29 9243.8701 14210.96 4292596811
-2237.96 9244.8701 14205.78 4292596811
-2314.97 9240.7803 14212.59 4292596811
-2308.8799 9239.0098 14209.31 4292596811
-2302.6101 9244.0801 14214.38 4292596811
-2293.6899 9242.25 14211.47 4292596811
-2287.3799 9247.1699 14207.48 4292596811
-2279.71 9242.7402 14211.59 4292596811
-2275.04 9250.5303 14203.54 4292596811
-2268.3999 9254.0898 14207.82 4292596811
-2259.97 9250.4102 14202.41 4292596811
-2254.8 9260.0498 14211.64 4292596811
-2247.1001 9255.4199 14206.61 4292596811
-2241.76 9260.5801 14207.82 4292596811
-2234.73 9262.6104 14211.22 4292596811
-2227.2 9262.5498 14207.02 4292596811
-2214.1699 9263.04 14203.2 4292596811
-2207.6399 9263.2002 14204.12 4292596811
-2200.4099 9264.3701 14206.28 4292596811
-2330.71 9247.1904 14204.03 4292596811
-2325.1699 9251.3896 14209.55 4292596811
-2318.0701 9253.1699 14209.55 4292596811
-2311.49 9253.25 14208.77 4292596811
-2305.79 9260.6104 14215.86 4292596811
-2296.97 9255.46 14209.68 4292596811
-2289.29 9254.8799 14207.57 4292596811
-2282.97 9255.96 14209.81 4292596811
-2279.27 9267.71 14206.36 4292596811
-2271.6399 9267.3301 14206.02 4292596811
-2263.6001 9265.25 14203.12 4292596811
-2258.23 9274.1104 14211.08 4292596811
-2251.0801 9271.7998 14208.18 4292596811
-2245.1599 9274.6396 14207.26 4292596811
-2238.1399 9276.71 14210.75 4292596811
-2230.5801 9276.5996 14206.48 4292596811
-2224.1001 9280.9502 14212 4292596811
-2218.9199 9282.8896 14211.54 4292596811
-2212.1799 9282.2402 14211.21 4292596811
-2204.5 9281.5898 14209.1 4292596811
-2197.0701 9281.9502 14210.01 4292596811
-2190.3 9281.1299 14207.98 4292596811
-2186.1599 9287.4805 14209.88 4292596811
-2176.6599 9279.0596 14207.69 4292596811
-2169.74 9281.54 14208.94 4292596811
-2152.3501 9295.5898 14204.33 4292596811
-2129.8301 9299.7002 14208.64 4292596811
-2322.21 9269.6904 14212.82 4292596811
-2315.79 9270.4297 14211.57 4292596811
-2307.4299 9267.2197 14203.94 4292596811
-2300.25 9268.6797 14207.88 4292596811
-2293.79 9273.0801 14213.41 4292596811
-2285.4099 9265.8799 14202.95 4292596811
-2283.55 9285.1104 14210.94 4292596811
-2275.4399 9282.8301 14206.26 4292596811
-2267.4399 9280.9697 14205.13 4292596811
-2261.45 9287.3398 14209.28 4292596811
-2254.8899 9287.5303 14210.2 4292596811
-2249.5801 9292.8701 14213.1 4292596811
-2240.9199 9288.2695 14206.38 4292596811
-2234.3101 9292.1299 14206.71 4292596811
-2226.48 9290.8799 14205.13 4292596811
-2221.6799 9294.46 14207.16 4292596811
-2215.1299 9294.6201 14208.08 4292596811
-2208.6399 9299.0195 14213.69 4292596811
-2200.3999 9296.0098 14209.46 4292596811
-2187.8 9294.46 14208.8 4292596811
-2179.96 9293.1299 14207.15 4292596811
-2165.5601 9295.7998 14207.6 4292596811
-2162.78 9312.2002 14208.37 4292596811
-2156.5701 9313.7998 14210.07 4292596811
-2146.4399 9302.54 14208.01 4292596811
-2141.3501 9317.1504 14208.37 4292596811
-2131.99 9309.1396 14211.29 4292596811
-2126 9307.5498 14211.42 4292596811
-2120.1799 9315.0195 14205.59 4292596811
-2112.5901 9314.6504 14206.97 4292596811
-2107.8101 9326.7305 14212.65 4292596811
-2099.46 9323.04 14208.95 4292596811
-2092.97 9319.2402 14201.32 4292596811
-2086.5701 9324.1602 14206.38 4292596811
-2338.4199 9277.7695 14206.81 4292596811
-2325.0701 9281.1201 14206.81 4292596811
-2320.1201 9287.7598 14216.06 4292596811
-2310.9399 9281.2998 14203.46 4292596811
-2304.1499 9284.3896 14209.89 4292596811
-2297.6799 9288.7998 14215.41 4292596811
-2291.8101 9291.8203 14208.84 4292596811
-2286.1899 9295.8398 14205.31 4292596811
-2279.51 9299.4404 14209.57 4292596811
-2271.6001 9301.8604 14214.68 4292596811
-2264.8701 9301.3896 14208.71 4292596811
-2257.9099 9299.96 14207.14 4292596811
-2253.1799 9307.7402 14213.76 4292596811
-2245.72 9308.1396 14214.68 4292596811
-2236.7 9302.0596 14199.83 4292596811
-2229.8501 9304.9404 14204.57 4292596811
-2226.05 9312.7002 14212.98 4292596811
-2217.8999 9306.2402 14203.78 4292596811
-2211.2 9309.7695 14208.05 4292596811
-2203.04 9311.1699 14210.22 4292596811
-2189.4399 9305.4297 14203.18 4292596811
-2183.47 9308.0703 14207.91 4292596811
-2178.3501 9318.3701 14209.3 4292596811
-2168.8 9309.7197 14205.34 4292596811
-2166.05 9326.29 14207.79 4292596811
-2159.6399 9327.0898 14208.25 4292596811
-2150.6001 9324.6602 14207.6 4292596811
-2134.6599 9320.79 14206.99 4292596811
-2128.99 9320.6797 14207.91 4292596811
-2121.76 9321.9502 14204.42 4292596811
-2117.5601 9336.5596 14206.55 4292596811
-2110.4299 9338.3398 14208.25 4292596811
-2102.22 9335.3096 14204.11 4292596811
-2097.45 9339.1699 14209.62 4292596811
-2089.74 9338.3301 14205.89 4292596811
-2080.45 9334.5996 14200.42 4292596811
-2073.99 9339.3604 14203.78 4292596811
-2067.98 9341.9297 14208.51 4292596811
-2062.1599 9345.3096 14207.14 4292596811
-2054.6599 9345.4102 14206.35 4292596811
-2323.01 9299.3604 14211.75 4292596811
-2315.46 9299.46 14209.17 4292596811
-2307.01 9295.9297 14205.5 4292596811
-2300.1001 9298.5703 14206.82 4292596811
-2293.3701 9298.1201 14208.2 4292596811
-2290.26 9312.4004 14208.52 4292596811
-2283.77 9316.7998 14214.04 4292596811
-2274.02 9311.7803 14207.79 4292596811
-2268.0901 9314.6299 14206.87 4292596811
-2262.3301 9318.1396 14212.85 4292596811
-2255.5801 9317.6699 14206.87 4292596811
-2248.6799 9320.4199 14209.9 4292596811
-2241.8899 9323.6201 14210.69 4292596811
-2233.6201 9320.6904 14206.55 4292596811
-2228.6201 9323.46 14207.33 4292596811
-2221.8501 9322.8096 14207.01 4292596811
-2213.45 9323.2402 14206.23 4292596811
-2206.3401 9325.0898 14207.93 4292596811
-2200.47 9324.21 14207.61 4292596811
-2193.55 9322.8799 14207.74 4292596811
-2187.72 9330.1699 14207.47 4292596811
-2179.78 9324.4902 14206.88 4292596811
-2171.97 9327.3896 14209.91 4292596811
-2162.1499 9337.9102 14202.68 4292596811
-2151.8601 9330.1104 14205.63 4292596811
-2145.1299 9333.5996 14209.91 4292596811
-2138.0901 9335.75 14207.74 4292596811
-2131.8401 9333.1396 14204.85 4292596811
-2125.74 9339.4297 14208.99 4292596811
-2120.96 9351.5498 14207.28 4292596811
-2112.74 9352.71 14207.74 4292596811
-2105.78 9351.0996 14206.09 4292596811
-2099.8899 9350.0098 14204.06 4292596811
-2092.3301 9354.1201 14206.09 4292596811
-2084.3401 9352.0898 14204.98 4292596811
-2077.5 9355.1699 14205.77 4292596811
-2070.21 9356.25 14207.93 4292596811
-2058.1299 9361.1699 14208.25 4292596811
-2346.49 9309.79 14210.23 4292596811
-2332.73 9311.6797 14209.44 4292596811
-2325.49 9309.2695 14204.85 4292596811
-2319.1699 9314.3604 14209.9 4292596811
-2311.28 9313.1299 14208.26 4292596811
-2296.01 9308.8496 14202.56 4292596811
-2286.8101 9329.2305 14210.95 4292596811
-2277.6299 9326.5498 14206.82 4292596811
-2271.28 9327.7197 14203.33 4292596811
-2265.1499 9329.7598 14208.52 4292596811
-2259.1599 9332.4502 14205.9 4292596811
-2244.6799 9335.2402 14206.36 4292596811
-2236.99 9334.7598 14205.95 4292596811
-2232.98 9341.7197 14213.12 4292596811
-2225.96 9340.0498 14209.76 4292596811
-2216.99 9338.1299 14206.88 4292596811
-2209.0901 9336.71 14203.61 4292596811
-2203.6799 9341.8203 14212.07 4292596811
-2196.47 9335.2695 14204.58 4292596811
-2189.3501 9337.1602 14206.37 4292596811
-2182.8799 9337.75 14205.04 4292596811
-2170.46 9349.2803 14208.66 4292596811
-2165.6001 9352.8203 14203.33 4292596811
-2155.3101 9345.0703 14206.37 4292596811
-2149.8301 9354.04 14208.66 4292596811
-2140.71 9347.1904 14201.64 4292596811
-2136.1399 9356.0996 14205.63 4292596811
-2128.77 9352.7197 14207.15 4292596811
-2115.54 9365.1299 14204.57 4292596811
-2108.96 9365.2197 14205.49 4292596811
-2103.6201 9366.6396 14207.28 4292596811
-2095.49 9368.2402 14205.49 4292596811
-2087.8201 9367.6904 14205.17 4292596811
-2073.3401 9370.3799 14207.34 4292596811
-2068.76 9375.2598 14208.52 4292596811
-2060.3501 9375.5498 14207.74 4292596811
-2315.1101 9332.4004 14215.27 4292596811
-2307.3899 9331.8799 14213.25 4292596811
-2300.46 9326.8799 14206.55 4292596811
-2295.22 9332.5498 14205.48 4292596811
-2289.6399 9340.7803 14206.53 4292596811
-2281.8701 9343.9404 14211.26 4292596811
-2274.22 9343.6904 14205.28 4292596811
-2268.5601 9343.8203 14207.91 4292596811
-2263.1699 9349.0195 14209.09 4292596811
-2255.0701 9346.9199 14206.21 4292596811
-2247.8701 9348.4902 14204.5 4292596811
-2241.1299 9352 14208.69 4292596811
-2235.9099 9353.96 14208.23 4292596811
-2228.4099 9354.3398 14209.15 4292596811
-2220.1299 9351.3896 14205.02 4292596811
-2213.2 9354.1201 14208.05 4292596811
-2206.96 9355.7598 14209.76 4292596811
-2200.3301 9351.71 14206.09 4292596811
-2193.04 9352.8799 14208.25 4292596811
-2171.6899 9354.5898 14204.98 4292596811
-2169.6001 9370.0898 14206.06 4292596811
-2151.6101 9361.8096 14208.7 4292596811
-2144.8899 9365.4404 14207.33 4292596811
-2137.3899 9361.5703 14203.65 4292596811
-2131.79 9366.0098 14205.3 4292596811
-2125.55 9371.79 14204.24 4292596811
-2118.9299 9380.1201 14205.28 4292596811
-2112.7 9381.8496 14208.69 4292596811
-2106.9399 9381.4199 14206.21 4292596811
-2098.1001 9379.9004 14201.15 4292596811
-2090.97 9381.8203 14204.56 4292596811
-2084.51 9386.7598 14209.61 4292596811
-2076.28 9383.6797 14205.48 4292596811
-2071.8799 9389.3896 14207.91 4292596811
-2250.55 9363.5996 14205.12 4292596811
-2231.5701 9367.6104 14207.28 4292596811
-2224.6299 9370.3398 14210.31 4292596811
-2216.9399 9369.9004 14210 4292596811
-2210.0901 9369.0303 14207.89 4292596811
-2204.05 9367.4902 14208.04 4292596811
-2188.9299 9367.7002 14204.68 4292596811
-2157.72 9388.3896 14204.97 4292596811
-2148.51 9381.25 14209.28 4292596811
-2144.99 9394.8799 14210.1 4292596811
-2135.1899 9380.96 14205.92 4292596811
-2130.5601 9393.8896 14205.44 4292596811
-2122.27 9394.9102 14204.19 4292596811
-2115.3301 9393.5098 14204.34 4292596811
-2110.3 9396.3701 14206.82 4292596811
-2102 9397.3701 14205.58 4292596811
-2094.6799 9398.46 14207.75 4292596811
-2086.9199 9397.5996 14204.02 4292596811
-2079.75 9399.3604 14205.73 4292596811
-2075.5601 9406.0498 14211.09 4292596811
-2138.76 9396.6104 14206.15 4292596811
-2134.3 9410.3799 14206.89 4292596811
-2126.03 9411.5498 14207.36 4292596811
-2118.47 9407.4805 14202 4292596811
-2112.2 9409.0596 14203.7 4292596811
-2105.1799 9411.5498 14205.02 4292596811
-2097.6599 9411.8301 14205.95 4292596811
-2090.95 9415.75 14207.97 4292596811
