# .PCD v0.7 - Point Cloud Data file format
VERSION 0.7
FIELDS x y z rgb
SIZE 4 4 4 4
TYPE F F F U
COUNT 1 1 1 1
WIDTH 54
HEIGHT 1
VIEWPOINT 0 0 0 1 0 0 0
POINTS 54
DATA ascii
1276.11 4111.7998 13880.35 4287269898
1278.61 4111.4902 13881.78 4287269898
1279.9399 4104.6699 13859.7 4287269898
1282.83 4102.8701 13866.35 4287269898
1269.13 4132.6499 13895.53 4287269898
1269.84 4125.1099 13875.4 4287269898
1272.6 4122.8301 13871.01 4287269898
1275.03 4118.0601 13861 4287269898
1276.4399 4112.8599 13846.39 4287269898
1278.34 4110.6401 13843.73 4287269898
1279.54 4103.3799 13820.22 4287269898
1282.47 4101.7002 13846 4287269898
1267.09 4134.4902 13866.47 4287269898
1269.7 4123.23 13834.39 4287269898
1270.98 4116.1602 13813.96 4287269898
1273.8101 4114.1299 13812.74 4287269898
1276.03 4111.54 13806.92 4287269898
1277.12 4106.7002 13795.47 4287269898
1267.27 4135.0698 13831.08 4287269898
1270.61 4126.2002 13809.43 4287269898
1271.96 4119.3301 13787.37 4287269898
1274.59 4116.6602 13786.35 4287269898
1279.64 4113.4302 13783.6 4287269898
1266.7 4131.79 13785.7 4287269898
1270.04 4124.3398 13768.44 4287269898
1273.54 4124.4502 13769.76 4287269898
1276.5 4121.4102 13765.58 4287269898
1279.47 4121.23 13770.17 4287269898
1269.21 4139.9702 13778.29 4287269898
1271.38 4138.5498 13773.7 4287269898
1272.6801 4131.5 13758.08 4287269898
1275.91 4130.7202 13756.45 4287269898
1280.1 4133.04 13769.72 4287269898
1270.9 4145.48 13762.01 4287269898
1273.47 4145.3799 13761.81 4287269898
1276.73 4144.6602 13764.97 4287269898
1279.5 4142.3599 13760.58 4287269898
1271.6801 4156.5601 13761.85 4287269898
1274.87 4157.0298 13766.24 4287269898
1278.4 4159.98 13776.13 4287269898
1280.1899 4155.8701 13767.67 4287269898
1272.4301 4170.46 13765.55 4287269898
1278.3101 4168.25 13768.92 4287269898
1268.97 4180.6602 13777.14 4287269898
1269.76 4174.5801 13770.94 4287269898
1275.59 4180.8198 13765.36 4287269898
1278.8101 4179.8799 13770.07 4287269898
1280.73 4176.1201 13758.23 4287269898
1272.77 4183.0601 13764.94 4287269898
1272.97 4202.5098 13773.38 4287269898
1282.1801 4200.9702 13779.4 4287269898
1271.59 4221.29 13780.57 4287269898
1276.92 4215.5498 13781.83 4287269898
1283.76 4217.7402 13774.13 4287269898
