# .PCD v0.7 - Point Cloud Data file format
VERSION 0.7
FIELDS x y z rgb
SIZE 4 4 4 4
TYPE F F F U
COUNT 1 1 1 1
WIDTH 176
HEIGHT 1
VIEWPOINT 0 0 0 1 0 0 0
POINTS 176
DATA ascii
-3094.77 10794.38 14209.45 4279294087
-3106.0701 10806.41 14205.61 4279294087
-3085.6599 10789.93 14179.89 4279294087
-3079.72 10808.36 14180.66 4279294087
-3111.77 10826.26 14210.69 4279294087
-3100.8701 10819.57 14179.24 4279294087
-3089.51 10803.37 14176.59 4279294087
-3083.8301 10822.77 14178.61 4279294087
-3074.22 10816.58 14167.8 4279294087
-3114.3401 10835.18 14201.42 4279294087
-3093.79 10818.36 14173.92 4279294087
-3088.7 10839.87 14180.06 4279294087
-3077.28 10827.33 14160.96 4279294087
-3065.4399 10817.25 14161.4 4279294087
-3060.8501 10828.75 14155.65 4279294087
-3128.6299 10853.54 14207.63 4279294087
-3114.71 10836.49 14180.79 4279294087
-3104.9099 10833.68 14175.38 4279294087
-3099.21 10837.31 14177.81 4279294087
-3092.98 10854.88 14177.36 4279294087
-3080.5701 10838.92 14155.21 4279294087
-3118.3301 10852.99 14181.05 4279294087
-3108.77 10847.12 14172.04 4279294087
-3103.8301 10853.46 14177.99 4279294087
-3095.26 10862.88 14166.89 4279294087
-3086.3999 10859.44 14159.7 4279294087
-3134.28 10873.16 14191.37 4279294087
-3122.73 10868.3 14180.12 4279294087
-3113.9299 10865.13 14174.64 4279294087
-3107.4199 10866.02 14173.47 4279294087
-3099.6001 10878.13 14165.88 4279294087
-3089.1799 10869.23 14151.58 4279294087
-3077.1399 10862.5 14157.44 4279294087
-3146.8 10916.58 14206.09 4279294087
-3127.3899 10884.52 14180.34 4279294087
-3123.75 10899.42 14177.51 4279294087
-3112.0601 10882.23 14173.7 4279294087
-3105.8 10899.88 14173.29 4279294087
-3092.75 10885.74 14151.81 4279294087
-3079.9199 10872.3 14149.32 4279294087
-3147.78 10919.96 14189.57 4279294087
-3133.28 10905.01 14174.95 4279294087
-3115.05 10896.64 14169.78 4279294087
-3107.02 10904.15 14157.95 4279294087
-3096.5701 10899.19 14148.43 4279294087
-3157.3701 10925.69 14192.77 4279294087
-3135.8999 10914.14 14177.08 4279294087
-3127.01 10910.77 14169.98 4279294087
-3122.04 10921.11 14170.92 4279294087
-3111.8301 10921.02 14157.6 4279294087
-3162.8601 10944.69 14196.52 4279294087
-3151.8601 10938.06 14180.61 4279294087
-3139.7 10927.35 14171.95 4279294087
-3134.02 10935.24 14171.1 4279294087
-3124.8401 10930.9 14172.5 4279294087
-3116.45 10937.27 14157.76 4279294087
-3190.05 10979.55 14218.32 4279294087
-3178.6001 10963.67 14203.76 4279294087
-3167.2 10959.72 14193.7 4279294087
-3153.6299 10944.2 14177.41 4279294087
-3143.8201 10941.72 14169.7 4279294087
-3136.5701 10944.15 14171.48 4279294087
-3128.1799 10942.58 14166.73 4279294087
-3119.76 10948.87 14151.92 4279294087
-3192.6399 10988.46 14208.93 4279294087
-3181.8899 10975.03 14196.17 4279294087
-3170.04 10969.52 14185.5 4279294087
-3160.8701 10969.32 14168.18 4279294087
-3148.23 10957.05 14168.68 4279294087
-3144.8101 10972.89 14166.93 4279294087
-3133.6001 10961.53 14170.38 4279294087
-3184.47 10983.93 14186.78 4279294087
-3174.47 10984.86 14184.45 4279294087
-3166.5901 10989.19 14172.96 4279294087
-3152.8999 10973.3 14168.8 4279294087
-3135.01 10966.48 14154.55 4279294087
-3201 11017.24 14204.28 4279294087
-3189.45 11001.08 14188.05 4279294087
-3177.5601 10995.56 14177.39 4279294087
-3158.3501 10992.27 14172.41 4279294087
-3148.6001 10986.11 14161.75 4279294087
-3138.6001 10979.04 14149.92 4279294087
-3202.4399 11022.2 14188.4 4279294087
-3190.4099 11004.41 14171.49 4279294087
-3182.78 11013.63 14179.81 4279294087
-3171.46 11006.09 14172.51 4279294087
-3163.47 11010.08 14173.13 4279294087
-3153 11001.46 14160.69 4279294087
-3219.76 11054.08 14212.71 4279294087
-3207.1699 11038.46 14188.46 4279294087
-3197.8 11029.91 14183.45 4279294087
-3187.1499 11028.73 14177 4279294087
-3177.21 11026.04 14177.33 4279294087
-3165.22 11016.19 14160.14 4279294087
-3156.5801 11013.96 14155.95 4279294087
-3148.9299 11015.17 14154.79 4279294087
-3222.54 11063.64 14202.71 4279294087
-3210.01 11048.25 14180.19 4279294087
-3200.1001 11037.84 14172.77 4279294087
-3191.8301 11044.94 14176.96 4279294087
-3181.6299 11041.4 14176.22 4279294087
-3170.4299 11034.32 14162.62 4279294087
-3161.5 11031.13 14157.19 4279294087
-3223.51 11066.96 14186.12 4279294087
-3216.0701 11069.12 14186.12 4279294087
-3206.0801 11058.45 14176.99 4279294087
-3194.1399 11056.92 14171.09 4279294087
-3189.6699 11069.28 14170.31 4279294087
-3165.6399 11045.58 14154.91 4279294087
-3228.78 11085.05 14188.45 4279294087
-3218.6599 11078.01 14176.66 4279294087
-3210.8 11074.72 14177.01 4279294087
-3198.3 11071.31 14168.71 4279294087
-3234.3401 11104.12 14192.01 4279294087
-3223.8601 11099.85 14181.99 4279294087
-3213.3799 11087.61 14172.29 4279294087
-3203.8101 11090.38 14172.29 4279294087
-3193.74 11083.42 14166.2 4279294087
-3182.5 11076.32 14152.62 4279294087
-3263.24 11135.76 14219.73 4279294087
-3236.9099 11112.95 14182.45 4279294087
-3228.04 11114.26 14179.57 4279294087
-3218.3601 11104.8 14173.44 4279294087
-3207.1599 11101.99 14166.31 4279294087
-3196.8201 11094.11 14159.07 4279294087
-3265.5701 11143.7 14208.97 4279294087
-3253.6201 11138.52 14196.02 4279294087
-3241.8401 11129.89 14181.85 4279294087
-3231.7 11126.84 14174.81 4279294087
-3223.3501 11122 14174.57 4279294087
-3213.3701 11123.48 14161.85 4279294087
-3200.45 11106.69 14154.33 4279294087
-3280.3301 11166.26 14215.51 4279294087
-3255.95 11146.49 14185.35 4279294087
-3247.3999 11148.98 14185.35 4279294087
-3235.6201 11140.34 14171.19 4279294087
-3230.1101 11145.33 14172.4 4279294087
-3283.48 11176.99 14208.29 4279294087
-3273.7 11175.4 14205.85 4279294087
-3258.46 11155.05 14174.03 4279294087
-3249.4399 11155.98 14173.43 4279294087
-3240.0701 11155.67 14169.87 4279294087
-3231.8999 11151.53 14169.18 4279294087
-3219.5901 11145 14157.34 4279294087
-3289.8201 11198.59 14213.49 4279294087
-3274.1299 11176.86 14186.88 4279294087
-3265.3899 11178.78 14183.37 4279294087
-3254.1899 11172.28 14173.34 4279294087
-3245.8101 11175.43 14172.78 4279294087
-3235.27 11163.14 14163.15 4279294087
-3224.5601 11162.21 14158.43 4279294087
-3298.5701 11204.53 14206.78 4279294087
-3294.6201 11214.91 14213.36 4279294087
-3279.1699 11194.08 14187.93 4279294087
-3267.98 11187.65 14173.83 4279294087
-3258.9399 11188.59 14173.24 4279294087
-3248.6499 11185.21 14164.41 4279294087
-3238.9199 11175.72 14158.34 4279294087
-3229.27 11178.52 14158.34 4279294087
-3306.3899 11231.1 14219.61 4279294087
-3296.1399 11220.08 14199.09 4279294087
-3282.8601 11206.67 14183.09 4279294087
-3274.9199 11211.41 14183.13 4279294087
-3263.3301 11203.66 14170.16 4279294087
-3254.47 11205.25 14169 4279294087
-3244.6299 11195.43 14161.15 4279294087
-3299.28 11230.79 14191.83 4279294087
-3287.55 11222.66 14181.15 4279294087
-3277.77 11221.19 14174.73 4279294087
-3267.8101 11219.06 14168.86 4279294087
-3257.04 11214.11 14159.45 4279294087
-3248.8201 11209.91 14158.7 4279294087
-3291.24 11235.26 14176.29 4279294087
-3272.02 11233.49 14166.32 4279294087
-3259.6001 11222.91 14149.82 4279294087
-3253.27 11225.25 14157.33 4279294087
