# .PCD v0.7 - Point Cloud Data file format
VERSION 0.7
FIELDS x y z rgb
SIZE 4 4 4 4
TYPE F F F U
COUNT 1 1 1 1
WIDTH 1245
HEIGHT 1
VIEWPOINT 0 0 0 1 0 0 0
POINTS 1245
DATA ascii
1123.47 5475.6001 14016.12 4293952400
1125.52 5466.9502 14019.33 4293952400
1131.62 5475.2998 14015.58 4293952400
1132.63 5464.3501 14016.54 4293952400
1138.71 5472.5698 14014.46 4293952400
1142.66 5470.4902 14013.33 4293952400
1146.58 5468.2998 14013.87 4293952400
1149.3101 5465.6802 14014.67 4293952400
1153.4399 5464.4902 14019.75 4293952400
1156.59 5461.27 14017.4 4293952400
1162.95 5468.04 14015.85 4293952400
1166.48 5466.6001 14016.12 4293952400
1170.13 5465.7402 14017.88 4293952400
1174.0601 5463.6001 14016.66 4293952400
1178.53 5464.02 14016.12 4293952400
1182.28 5461.0698 14018.67 4293952400
1186.39 5459.7998 14013.87 4293952400
1193.64 5455.3599 14016.6 4293952400
1197.28 5451.9302 14016.01 4293952400
1201.29 5450.2402 14017.94 4293952400
1206.9301 5458.4199 14017.61 4293952400
1210.16 5455.6401 14018.41 4293952400
1213.39 5450.4302 14015.21 4293952400
1218.37 5450.5801 14016.33 4293952400
1221.73 5448.4502 14016.87 4293952400
1225.76 5449.29 14021.14 4293952400
516.51001 5579.7798 14023.79 4293952400
520.23999 5579.3198 14025.45 4293952400
523.22998 5576.6602 14021.44 4293952400
528.37 5579.6699 14028.24 4293952400
532.35999 5576.2798 14024.59 4293952400
541.09998 5577.3301 14025.45 4293952400
544.21997 5576.1299 14029.04 4293952400
548.53998 5570.6499 14026.2 4293952400
551.91998 5566.6899 14021.07 4293952400
557.59998 5575.0498 14025.71 4293952400
561.09003 5572.1899 14023.37 4293952400
564.75 5570.9399 14027.06 4293952400
569.13 5566.3101 14020.54 4293952400
578.29999 5576.75 14027.43 4293952400
580.32001 5565.04 14022.2 4293952400
585.66998 5574.8599 14024.64 4293952400
589.08002 5566.27 14029.53 4293952400
593.04999 5563.02 14022.47 4293952400
605.42999 5572.6299 14026.31 4293952400
616.63 5561.4502 14017.12 4293952400
620.06 5563.2202 14024.45 4293952400
623.98999 5559.75 14020.8 4293952400
628.65002 5557.9502 14019.59 4293952400
632.65002 5559.8901 14023.59 4293952400
640.39001 5561.52 14025.93 4293952400
644.59998 5560.5498 14022.79 4293952400
649.32001 5559.3198 14023.05 4293952400
661.34998 5565.0298 14025.18 4293952400
665.40002 5562.6499 14024.32 4293952400
669.51001 5556.3701 14021.66 4293952400
673.20001 5555.6099 14026.74 4293952400
677.38 5563.2998 14021.76 4293952400
686.97998 5562.1299 14021.76 4293952400
691.23999 5561.52 14023.52 4293952400
694.96002 5560.9399 14025.18 4293952400
698 5559.3198 14024.06 4293952400
702.96997 5560.0498 14023.52 4293952400
711.21997 5556.8599 14025.98 4293952400
714.28998 5551.23 14024.72 4293952400
717.92999 5550.0801 14024.98 4293952400
723.65997 5556.71 14023.79 4293952400
727.73999 5554.7202 14025.98 4293952400
731.35999 5549.3599 14019.73 4293952400
734.84998 5551.1802 14025.4 4293952400
738.78003 5548.1499 14023.05 4293952400
743.34003 5545.8198 14018.78 4293952400
747.60999 5545.3599 14017.12 4293952400
754.51001 5544.3101 14018.78 4293952400
758.89001 5544.6299 14024.98 4293952400
762.91998 5542.48 14019.05 4293952400
772.04999 5549.71 14020.64 4293952400
774.85999 5546.5 14023.37 4293952400
778.77002 5543.4702 14021.12 4293952400
782.73999 5540.8701 14021.93 4293952400
786.81 5539.0498 14020.8 4293952400
790 5538.6001 14020.8 4293952400
793.78003 5538.5 14023.86 4293952400
798.48999 5537.3799 14020.8 4293952400
802.28003 5537.2798 14023.86 4293952400
806.56 5536.8901 14020.54 4293952400
809.54999 5535.1001 14021.07 4293952400
815.32001 5544.8799 14020.1 4293952400
819.26001 5542.1401 14022.57 4293952400
823.94 5540.7002 14024.59 4293952400
827.26001 5537.4902 14025.67 4293952400
835.83002 5540.3501 14022.3 4293952400
843.57001 5534.1001 14019.46 4293952400
850.90002 5532.2998 14019.73 4293952400
855.28998 5529.0898 14017.39 4293952400
860.08002 5532 14022.52 4293952400
864.29999 5531.1499 14025.93 4293952400
866.95001 5527.2798 14017.39 4293952400
871.51001 5528.6499 14026.47 4293952400
876.91998 5535.3599 14021.76 4293952400
881.20001 5531.5098 14019.79 4293952400
884.58002 5528.8198 14022.25 4293952400
886.95001 5523.2998 14019.32 4293952400
893.28998 5532.29 14018.71 4293952400
897.32001 5530.2798 14019.25 4293952400
901.82001 5531.1602 14025.18 4293952400
905.67999 5528.1201 14021.18 4293952400
908.64001 5526.2798 14021.71 4293952400
913.56 5526.3701 14018.12 4293952400
917.19 5522.0098 14014.65 4293952400
928.25 5519.8398 14019.73 4293952400
931.75 5514.7998 14016.53 4293952400
941.59003 5521.4399 14021.44 4293952400
944.34998 5518.48 14019.19 4293952400
948.31 5516.2002 14023.05 4293952400
951.71002 5513.7998 14020.54 4293952400
955.71997 5511.8198 14019.32 4293952400
960.16998 5512.3301 14020.54 4293952400
963.04999 5510.1001 14016.26 4293952400
966.94 5507.4502 14015.32 4293952400
971.59998 5509.1602 14017.66 4293952400
975.82001 5508.4199 14017.66 4293952400
979.38 5506.98 14019.59 4293952400
984.19 5515.6001 14017.59 4293952400
988.15997 5513.3999 14019.79 4293952400
992.64001 5511.0098 14023.64 4293952400
995.91998 5505.02 14014.24 4293952400
998.81 5502.9302 14018.19 4293952400
1002.29 5501.1299 14015.32 4293952400
1008.68 5509.2002 14016.64 4293952400
1013.21 5510.1001 14020.91 4293952400
1017.15 5507.7598 14014.98 4293952400
1020.48 5508.0801 14021.18 4293952400
1024.73 5507.4102 14019.52 4293952400
1029.48 5506.52 14019.52 4293952400
1033.15 5502.75 14015.78 4293952400
1037.64 5503.3999 14023.37 4293952400
1040.24 5499.8398 14019.73 4293952400
1044.08 5497.0601 14020.54 4293952400
1050.76 5506.29 14022.98 4293952400
1054.05 5500.6201 14018.39 4293952400
1057.26 5497.3599 14017.71 4293952400
1059.95 5494.3398 14015.46 4293952400
1065 5494.98 14021.39 4293952400
1068.99 5493.0298 14018.51 4293952400
1072.51 5488.6699 14013.38 4293952400
1077.64 5492.52 14021.39 4293952400
1081.14 5493.6499 14023.91 4293952400
1085.34 5489.9502 14016.85 4293952400
1089.26 5487.6802 14019.05 4293952400
1093.23 5485.6401 14017.93 4293952400
1101.63 5489.3301 14017.44 4293952400
1104.95 5484.0898 14016 4293952400
1109.74 5486.1201 14021.39 4293952400
1112.89 5482.73 14022.47 4293952400
1117.5699 5489.6401 14014.44 4293952400
1121.65 5488.1201 14014.71 4293952400
1126.41 5489.9502 14023.52 4293952400
1134 5486.8398 14015.83 4293952400
1134.9 5475.3101 14015.32 4293952400
1141.92 5488 14024.64 4293952400
1145.53 5484.2402 14019.25 4293952400
1149.71 5483.25 14020.91 4293952400
1151.75 5477.29 14013.17 4293952400
1155.75 5475.4399 14018.51 4293952400
1159.6899 5473.3501 14017.39 4293952400
1165.76 5481.2402 14020.37 4293952400
1169.35 5477.4702 14014.98 4293952400
1172.72 5477.8101 14019.52 4293952400
1176.53 5475.1201 14016.91 4293952400
1181.02 5475.5298 14016.37 4293952400
1184.53 5471.4702 14016.05 4293952400
1189.25 5472.98 14018.39 4293952400
1192.24 5471.54 14020.32 4293952400
1196.3101 5467.5298 14016.58 4293952400
1199.8 5463.4399 14016.26 4293952400
1204.71 5463.29 14022.47 4293952400
1209.6 5470.4702 14019.25 4293952400
1212.22 5464.9102 14012.9 4293952400
1216.48 5461.8101 14015.46 4293952400
508.70999 5594.9302 14024.61 4293952400
521.12 5588.8198 14020.02 4293952400
525.17999 5591.7202 14030.13 4293952400
529.48999 5591.5298 14026.81 4293952400
533.47998 5587.98 14024.74 4293952400
537.95001 5589.5 14025.68 4293952400
542.23999 5589.0898 14025.68 4293952400
544.98999 5584.0298 14017.68 4293952400
549.79999 5583.4902 14029.23 4293952400
553.14001 5578.98 14022.71 4293952400
558.94 5588.4399 14030.13 4293952400
562.34003 5584.5898 14023.34 4293952400
570.39001 5578.5898 14022.17 4293952400
574.53003 5576.8901 14020.96 4293952400
582.08002 5576.71 14022.44 4293952400
586.72998 5585 14018.95 4293952400
590.14001 5576.2998 14025.5 4293952400
594.23999 5574.1499 14021.23 4293952400
597.92999 5573.2002 14019.83 4293952400
602.12 5582.0098 14019.49 4293952400
606.94 5581.4902 14019.49 4293952400
610.77002 5581.8999 14027.34 4293952400
614.71997 5578.3901 14023.61 4293952400
618.23999 5575.9702 14024.42 4293952400
621.42999 5575.5 14026.08 4293952400
625.84003 5571.3701 14020.96 4293952400
630.17999 5571.48 14022.44 4293952400
633.97998 5571.6099 14023.84 4293952400
637.71002 5571.0601 14025.5 4293952400
641.54999 5571.5298 14021.9 4293952400
646.15997 5573.96 14027.3 4293952400
650.63 5570.48 14021.9 4293952400
654.01001 5567.0098 14018.17 4293952400
657.47998 5568.8799 14023.84 4293952400
670.91998 5568.0698 14021.9 4293952400
674.34003 5565.0298 14021.23 4293952400
679.27002 5574.3901 14020.61 4293952400
683.56 5573.98 14018.95 4293952400
688.42999 5573.8301 14022 4293952400
692.47998 5571.52 14019.49 4293952400
696.42999 5572.7202 14023.66 4293952400
699.71997 5568.6802 14018.53 4293952400
704.37 5571.1602 14022.27 4293952400
708.78003 5567.4502 14020.29 4293952400
712.58002 5567.4102 14023.34 4293952400
715.45001 5560.2402 14016.24 4293952400
719.44 5561.7798 14025.23 4293952400
725.17999 5568.3701 14023.93 4293952400
732.90002 5561.0098 14019.88 4293952400
736.78003 5561.6602 14022.76 4293952400
740.26001 5559.2798 14021.9 4293952400
744.76001 5556.3901 14016.24 4293952400
749.56 5559.8398 14024.42 4293952400
756.33002 5557.6802 14023.3 4293952400
760.17999 5554.0698 14019.56 4293952400
764.84003 5556.3999 14024.96 4293952400
770.09998 5563.02 14023.66 4293952400
774 5563.75 14024.88 4293952400
776.48999 5558.1802 14023.61 4293952400
780.25 5554 14018.49 4293952400
784.21997 5551.4102 14019.29 4293952400
788.31 5549.5898 14018.17 4293952400
791.34003 5547.9902 14015.29 4293952400
795.53003 5550.73 14025.5 4293952400
800.34998 5550.27 14022.17 4293952400
804.33002 5547.73 14021.23 4293952400
808.5 5550.21 14024.96 4293952400
811.25 5546.7202 14021.23 4293952400
817.03998 5556.5498 14020.34 4293952400
820.65997 5551.5801 14017.14 4293952400
825.75 5552.9199 14026.22 4293952400
828.65997 5546.8701 14020.15 4293952400
831.71997 5545.54 14023.84 4293952400
837.41998 5550.9102 14019.76 4293952400
841.47998 5548.9502 14020.29 4293952400
845.17999 5544.6099 14016.83 4293952400
848.97998 5544.6001 14018.22 4293952400
852.85999 5545.0498 14022.76 4293952400
857.26001 5541.8398 14020.42 4293952400
862.42999 5543.5698 14022.76 4293952400
865.85999 5541.1899 14020.15 4293952400
869.76001 5541.7402 14023.03 4293952400
873.15997 5539.1602 14023.84 4293952400
878.87 5547.6699 14021.73 4293952400
882.88 5542.02 14017.14 4293952400
886.88 5539.8301 14021.1 4293952400
889.44 5535.4102 14020.96 4293952400
895.26001 5544.48 14020.34 4293952400
899.47998 5543.5698 14023.66 4293952400
903.53003 5541.6602 14022.54 4293952400
907.69 5540.4199 14021.15 4293952400
910.28003 5536.23 14017.68 4293952400
919.59998 5536.5298 14020.29 4293952400
923.94 5536.3799 14021.68 4293952400
930.10999 5530.8799 14018.49 4293952400
934.34003 5526.8799 14018.17 4293952400
940.02002 5534.6499 14016.34 4293952400
943.29999 5531.4902 14015.75 4293952400
946.33002 5530.0601 14019.34 4293952400
950.21997 5527.27 14021.9 4293952400
954.15002 5524.7402 14019.29 4293952400
958.27002 5523.3398 14019.56 4293952400
962.19 5523.9102 14020.69 4293952400
965.16998 5522.2598 14017.9 4293952400
969.39001 5521.3999 14019.56 4293952400
973.44 5519.6401 14015.02 4293952400
977.88 5520.02 14017.9 4293952400
986.25 5527.1699 14017.73 4293952400
990.03998 5523.8901 14017.14 4293952400
993.91998 5518.1499 14012.56 4293952400
998.53003 5519.4302 14021.64 4293952400
1000.91 5514.52 14018.44 4293952400
1005.04 5513.21 14017.05 4293952400
1011.02 5522.0098 14018 4293952400
1015.25 5521.1499 14019.76 4293952400
1019.39 5519.8999 14016.61 4293952400
1023.06 5519.04 14020.02 4293952400
1026.99 5519.5498 14021.15 4293952400
1031.4399 5516.98 14016.88 4293952400
1036.37 5517 14023.07 4293952400
1039.3 5512.21 14016.56 4293952400
1042.4301 5511.3799 14019.88 4293952400
1045.96 5506.96 14016.51 4293952400
1052.4399 5515.0601 14016.07 4293952400
1056.38 5512.7598 14020.02 4293952400
1059.7 5510.0601 14020.83 4293952400
1062.5 5504.6802 14012.82 4293952400
1066.92 5504.8799 14017.36 4293952400
1070.92 5502.9302 14014.49 4293952400
1075.1 5501.9102 14017.9 4293952400
1079.92 5504.1602 14019.88 4293952400
1083.4 5502.3398 14017.09 4293952400
1087.73 5502.0498 14018.49 4293952400
1091.66 5499.7798 14020.69 4293952400
1100.23 5504.2402 14018.27 4293952400
1104.39 5503.1001 14023.34 4293952400
1107.39 5496.1899 14017.63 4293952400
1111.96 5497.0898 14020.15 4293952400
1114.89 5492.6099 14018.44 4293952400
1120.04 5501.73 14016.07 4293952400
1124.54 5499.5601 14014.95 4293952400
1128.2 5498.6899 14016.61 4293952400
1130.45 5488.2598 14015.56 4293952400
1137.53 5487.9702 14018.44 4293952400
1154.9399 5489.8301 14016.29 4293952400
1157.95 5485.8799 14015.97 4293952400
1162.14 5484.8799 14017.63 4293952400
1168.38 5490.98 14016.34 4293952400
1172.17 5490.6699 14019.49 4293952400
1174.71 5487.1201 14014.09 4293952400
1179.13 5487.21 14018.53 4293952400
1183.74 5488.1802 14019.49 4293952400
1187.6899 5483.5298 14016.02 4293952400
1191.75 5484.48 14018.53 4293952400
1195.03 5481.8198 14017.68 4293952400
1198.71 5478.5 14015.43 4293952400
1202.5699 5476.0298 14019.29 4293952400
1206.4 5470.9199 14012.78 4293952400
501.25 5596.2202 14014.45 4293952400
510.16 5604.9199 14020.57 4293952400
514.21997 5601.9399 14019.89 4293952400
518.67999 5603.25 14024.16 4293952400
522.85999 5601.6201 14023.03 4293952400
526.13 5601.8701 14024.42 4293952400
530.48999 5602.1401 14024.16 4293952400
535.08002 5599.1099 14023.57 4293952400
539.66998 5601.75 14027.3 4293952400
543.21002 5599.1201 14021.64 4293952400
546.29999 5597.4702 14022.18 4293952400
550.63 5591.9399 14019.26 4293952400
555.06 5592.8799 14028.52 4293952400
559.84003 5597.3701 14023.3 4293952400
563.58002 5596.8799 14024.97 4293952400
567.06 5593.8198 14026.05 4293952400
571.52002 5589.73 14020.92 4293952400
575.79999 5589.1802 14022.59 4293952400
583.35999 5588.9902 14024.07 4293952400
587.96002 5596.6899 14019.08 4293952400
591.34003 5587.5498 14022.59 4293952400
595.56 5586.54 14021.19 4293952400
599.48999 5587.73 14027.13 4293952400
603.56 5595.3999 14023.89 4293952400
608.45001 5595.4302 14025.28 4293952400
615.95001 5589.5601 14022.45 4293952400
619.59998 5588.2402 14026.05 4293952400
622.60999 5586.1099 14023.53 4293952400
635.90997 5583.8198 14025.46 4293952400
638.97998 5582.23 14024.34 4293952400
642.90002 5583.3301 14020.38 4293952400
652.06 5582.75 14023.53 4293952400
655.53003 5579.9399 14019.53 4293952400
659.46002 5581.0801 14025.46 4293952400
664.60999 5587.8198 14024.16 4293952400
668.87 5587.1099 14027.57 4293952400
672.33002 5579.7402 14022.05 4293952400
675.48999 5574.48 14015.8 4293952400
680.77002 5586.6499 14022.23 4293952400
685.66998 5586.73 14021.96 4293952400
690.08002 5587.23 14026.5 4293952400
693.92999 5583.1899 14019.62 4293952400
697.82001 5583.8701 14022.5 4293952400
701.33002 5581.52 14021.64 4293952400
705.78003 5582.2998 14021.11 4293952400
710.06 5577.4502 14016.25 4293952400
714.60999 5579.04 14023.57 4293952400
717.39001 5575.29 14024.92 4293952400
721.71997 5575.1802 14027.98 4293952400
726.63 5579.52 14022.76 4293952400
730.5 5575.8198 14020.7 4293952400
734.44 5572.7002 14020.11 4293952400
738.41998 5574.02 14022.72 4293952400
741.66998 5569.8198 14019.26 4293952400
746.40997 5568.71 14016.11 4293952400
751.07001 5571.0498 14021.51 4293952400
757.84998 5568.8901 14020.38 4293952400
761.92999 5566.8599 14022.59 4293952400
766.06 5565.2798 14018.14 4293952400
771.88 5575.9199 14025.01 4293952400
775.39001 5573.7402 14020.84 4293952400
778.41998 5568.0898 14019.57 4293952400
782.41998 5565.6099 14018.72 4293952400
786.10999 5564.77 14023.8 4293952400
789.96997 5561.2598 14018.41 4293952400
793.40002 5562.46 14022.59 4293952400
797.33002 5559.5298 14018.68 4293952400
801.95001 5561.3501 14020.92 4293952400
806.09998 5559.9502 14022.85 4293952400
810.47998 5560.1099 14020.92 4293952400
819.28998 5568.1401 14020.57 4293952400
823.08002 5564.27 14020.16 4293952400
827.16998 5562.4199 14019.03 4293952400
830.47998 5559.0898 14021.78 4293952400
834.08002 5557.6699 14025.46 4293952400
839.27002 5563.1299 14021.37 4293952400
843.23999 5560.5698 14020.43 4293952400
846.95001 5556.27 14017.06 4293952400
850.92999 5557.3501 14021.24 4293952400
854.46997 5555.5601 14020.11 4293952400
859.32001 5555.1899 14024.92 4293952400
864.15002 5554.6299 14021.51 4293952400
867.85999 5553.9702 14023.26 4293952400
871.40997 5552.25 14020.38 4293952400
874.72998 5549.1201 14019.8 4293952400
881.33002 5559.79 14023.35 4293952400
885 5555.3599 14021.64 4293952400
889.03003 5553.2402 14023.84 4293952400
897.67999 5556.04 14020.57 4293952400
901.09003 5553.52 14019.62 4293952400
905.25 5552.1699 14019.89 4293952400
909.78003 5553.1699 14024.16 4293952400
912.92999 5548.9902 14019.03 4293952400
917.48999 5550.1602 14019.89 4293952400
921.87 5546.9399 14017.64 4293952400
925.69 5546.8701 14019.03 4293952400
932.69 5542.9702 14020.11 4293952400
936.29999 5538.5 14018.41 4293952400
942.09003 5546.8301 14017.96 4293952400
946 5544.1299 14018.76 4293952400
952.21002 5538.8501 14022.05 4293952400
956.15002 5536.3599 14019.53 4293952400
960.09003 5533.8198 14016.92 4293952400
963.71997 5532.7402 14013.87 4293952400
971.13 5531.3301 14015.53 4293952400
976.53003 5534.0498 14020.65 4293952400
980.04999 5532.29 14017.87 4293952400
983.63 5530.8599 14019.8 4293952400
989.15002 5540.3701 14022.23 4293952400
992.75 5535.9502 14018.76 4293952400
996.52002 5532.5298 14019.84 4293952400
1000.64 5531.1099 14020.11 4293952400
1003.85 5527.6699 14022.85 4293952400
1007.15 5524.77 14017.19 4293952400
1013.36 5534.7402 14021.11 4293952400
1021.84 5533.1802 14021.11 4293952400
1024.9 5528.9502 14015.98 4293952400
1029.47 5529.9199 14018.49 4293952400
1034.45 5530.1602 14021.37 4293952400
1038.46 5528.1201 14020.16 4293952400
1041.9 5526.0298 14022.45 4293952400
1044.42 5521.9502 14015.57 4293952400
1054.97 5528.3301 14020.57 4293952400
1062.34 5520.96 14019.57 4293952400
1065.27 5519.02 14020.11 4293952400
1069.37 5517.54 14020.38 4293952400
1074.23 5517.1699 14021.78 4293952400
1077.77 5512.7998 14016.65 4293952400
1081.86 5514.0498 14015.84 4293952400
1089.92 5513.1499 14015.57 4293952400
1094.29 5510.23 14016.38 4293952400
1103.1801 5516.2598 14019.89 4293952400
1109.6 5507.1602 14016.38 4293952400
1113.96 5506.9702 14016.11 4293952400
1117.59 5505.9199 14021.19 4293952400
1122.86 5515.6299 14020.3 4293952400
1127.03 5511.77 14014.91 4293952400
1130.5699 5510.2402 14016.84 4293952400
1133.0601 5500.9302 14018.68 4293952400
1136.87 5500.71 14020.07 4293952400
1139.92 5499.5098 14018.68 4293952400
1146.7 5508.2798 14016.3 4293952400
1150.9 5507.29 14017.96 4293952400
1154.2 5504.6699 14017.1 4293952400
1157.37 5501.3701 14016.52 4293952400
1160.73 5499.0498 14020.38 4293952400
1164.23 5494.73 14013.6 4293952400
1171.0699 5503.6099 14019.35 4293952400
1174.27 5500.52 14015.45 4293952400
1177.4301 5499.8501 14015.45 4293952400
1182.02 5498.0698 14017.37 4293952400
1186.11 5499.1299 14018.23 4293952400
1194.5 5497.1299 14021.64 4293952400
1197.42 5492.79 14016.52 4293952400
1201.46 5491.1001 14018.45 4293952400
498.37 5612.3901 14022.85 4293952400
502.56 5610.7798 14021.73 4293952400
507.03 5618.2798 14021.91 4293952400
505.92001 5605.98 14020.3 4293952400
515.51001 5615.9502 14025.77 4293952400
519.77002 5614.9902 14024.37 4293952400
523.96002 5613.3701 14023.25 4293952400
527.17999 5613.0601 14023.25 4293952400
531.54999 5613.3301 14022.98 4293952400
536.15002 5610.2598 14022.31 4293952400
540.64001 5611.7798 14023.25 4293952400
544.07001 5608 14014.72 4293952400
547.60999 5610.8799 14026.58 4293952400
552.06 5606.5 14026.54 4293952400
556.16998 5604.0601 14027.35 4293952400
561.78003 5611.3901 14027.43 4293952400
568.08002 5603.8501 14022 4293952400
572.66998 5600.9102 14019.76 4293952400
577.01001 5600.9102 14022.81 4293952400
582.44 5611.4199 14024.96 4293952400
589.32001 5609.5698 14022.18 4293952400
593.16998 5599.7798 14024.2 4293952400
597.53003 5599.9199 14025.69 4293952400
605.38 5607.1899 14022.45 4293952400
609.47998 5604.9199 14019.83 4293952400
617.04999 5599.5801 14018.4 4293952400
620.71997 5598.3799 14020.34 4293952400
624.58002 5598.8799 14026.54 4293952400
628.66998 5596.5801 14023.93 4293952400
632.76001 5594.3198 14021.42 4293952400
637.17999 5594.9502 14024.2 4293952400
641.59998 5605.0801 14023.3 4293952400
649.21002 5595.6001 14023.39 4293952400
653.57001 5595.6899 14024.88 4293952400
657.16998 5593.9102 14025.42 4293952400
660.97998 5593.9102 14028.47 4293952400
670.20001 5598.2402 14026.31 4293952400
673.89001 5592.6802 14023.39 4293952400
677.92999 5590.1499 14024.2 4293952400
682.33002 5599.4702 14025.23 4293952400
687.45001 5601.25 14029.23 4293952400
691.25 5596.6499 14020.96 4293952400
696.07001 5595.9902 14022.71 4293952400
699.07001 5593.8799 14018.44 4293952400
702.94 5594.3301 14024.65 4293952400
707.19 5593.4302 14019.83 4293952400
711.90002 5591.96 14023.52 4293952400
716.03003 5590.1499 14022.31 4293952400
718.89001 5586.9902 14025.15 4293952400
722.94 5584.6299 14022.54 4293952400
728.01001 5590.0801 14020.11 4293952400
743.67999 5580.8501 14018 4293952400
748.13 5581.54 14019.21 4293952400
752.65002 5582.7402 14021.73 4293952400
760.13 5581.6099 14023.39 4293952400
763.69 5579.7598 14023.93 4293952400
767.96997 5579.1802 14023.93 4293952400
774.10999 5588.0898 14026.62 4293952400
776.85999 5584.2798 14018.18 4293952400
780.14001 5580.4399 14019.53 4293952400
784.46997 5580.2002 14024.33 4293952400
787.67999 5575.8599 14022.54 4293952400
791.96002 5575.2598 14022.54 4293952400
795.59998 5574.0601 14022.81 4293952400
799 5571.1602 14018.81 4293952400
803.78998 5574.1299 14023.93 4293952400
807.71002 5571.0698 14021.69 4293952400
812.26001 5572.3398 14022.54 4293952400
815.45001 5571.75 14024.2 4293952400
821.09003 5580.3599 14022.18 4293952400
824.98999 5577.1602 14021.5 4293952400
828.97998 5574.6401 14020.65 4293952400
832.5 5572.5601 14024.61 4293952400
835.40997 5566.5 14018.54 4293952400
841.65002 5575.27 14022.98 4293952400
845.19 5573.3701 14023.52 4293952400
849.45001 5569.0601 14018.4 4293952400
856.46002 5564.8901 14014.68 4293952400
860.78003 5564.6001 14019.49 4293952400
865.96002 5566.29 14021.73 4293952400
870.03998 5564.3999 14020.61 4293952400
873.23999 5563.8999 14020.61 4293952400
877.01001 5560.1001 14018.54 4293952400
883.09003 5570.8799 14022.18 4293952400
886.76001 5566.4199 14020.38 4293952400
890.62 5563.1899 14019.8 4293952400
893.46997 5560.46 14023.93 4293952400
899.37 5566.54 14017.91 4293952400
903.42999 5564.54 14018.44 4293952400
907.95001 5565.4199 14024.37 4293952400
915.02002 5561.73 14022.04 4293952400
920.15002 5562.9302 14021.23 4293952400
923.71002 5557.9902 14016.38 4293952400
934.46997 5553.5698 14015.8 4293952400
938.35999 5550.6802 14020.03 4293952400
944.27002 5559.6699 14019.3 4293952400
947.98999 5555.75 14018.99 4293952400
950.41998 5553.9702 14019.53 4293952400
958.25 5548.5298 14021.15 4293952400
962.09998 5545.4399 14017.15 4293952400
966.04999 5546.1201 14016.61 4293952400
969.33002 5546.04 14019.76 4293952400
973.89001 5543.9502 14018.54 4293952400
978.38 5544.52 14018 4293952400
982.31 5545 14020.88 4293952400
985.78998 5543.02 14021.42 4293952400
991.12 5551.3901 14020.96 4293952400
994.92999 5548.1099 14020.38 4293952400
998.92999 5542.9102 14017.19 4293952400
1002.13 5539.3398 14011.8 4293952400
1005.98 5539.3901 14021.42 4293952400
1011.48 5548.52 14019.03 4293952400
1015.48 5546.3198 14021.23 4293952400
1020.04 5544.23 14020.11 4293952400
1024.53 5544.75 14019.57 4293952400
1027.46 5542.7402 14021.77 4293952400
1031.83 5542.6201 14021.5 4293952400
1036.09 5538.9399 14014.45 4293952400
1040.64 5539.71 14020.38 4293952400
1043.88 5536.48 14019.8 4293952400
1046.83 5534.6699 14018.67 4293952400
1050.89 5532.8701 14023.93 4293952400
1057.41 5541.1299 14021.91 4293952400
1061.24 5535.2402 14018.99 4293952400
1067.1801 5528.9199 14016.07 4293952400
1071.62 5529.1201 14020.61 4293952400
1076.49 5528.75 14022 4293952400
1080.14 5524.9199 14018.27 4293952400
1084.24 5526.1699 14017.46 4293952400
1088.0601 5526.0298 14018.95 4293952400
1092.96 5525.7402 14018.67 4293952400
1096.6899 5522.3398 14018 4293952400
1105.28 5526.73 14017.32 4293952400
1108.92 5525.6499 14022.31 4293952400
1112.27 5520.3999 14020.88 4293952400
1116.41 5519.0698 14017.73 4293952400
1119.71 5516.3501 14018.54 4293952400
1124.99 5526.0498 14017.64 4293952400
1129.51 5523.8701 14016.52 4293952400
1133.08 5522.4502 14016.79 4293952400
1135.6899 5513.6899 14020.03 4293952400
1139.14 5511.6802 14018.81 4293952400
1142.3101 5511.02 14018.81 4293952400
1148.86 5518.7002 14013.64 4293952400
1153.54 5519.9302 14020.96 4293952400
1157.27 5516.6499 14018.71 4293952400
1159.79 5512.8701 14016.65 4293952400
1163.8101 5511.02 14022 4293952400
1166.55 5505.6802 14012.34 4293952400
1173.66 5515.7998 14019.3 4293952400
1177.11 5513.8101 14018.18 4293952400
1180.02 5511.9399 14017.05 4293952400
1184.64 5510.2598 14017.32 4293952400
1188.64 5508.3301 14012.78 4293952400
1200.0699 5504.9302 14016.38 4293952400
1204.75 5503.6001 14021.46 4293952400
483.89001 5633.29 14024.89 4293952400
491.03 5627.8101 14018.65 4293952400
495.32999 5627.21 14021.98 4293952400
499.51001 5625.2998 14025.94 4293952400
503.70999 5623.6499 14024.73 4293952400
512.29999 5628.3799 14020.9 4293952400
516.97998 5626.0498 14020.04 4293952400
521.45001 5627.3599 14024.31 4293952400
525.32001 5628.02 14028.76 4293952400
528.39001 5625.9302 14026.25 4293952400
532.71997 5625.6299 14024.58 4293952400
537.32001 5622.5698 14023.91 4293952400
541.59998 5621.8198 14019.2 4293952400
549.02002 5619.75 14019.74 4293952400
553.59003 5616.48 14022.48 4293952400
557.16998 5614.21 14021.63 4293952400
562.78998 5621.4302 14023.37 4293952400
566.37 5619.1499 14022.52 4293952400
569.81 5615.5298 14022.21 4293952400
574.03998 5614.3101 14024.15 4293952400
578.21997 5612.6401 14023.03 4293952400
583.59998 5622.6001 14023.77 4293952400
591.03003 5620.6602 14020.9 4293952400
594.35999 5610.96 14023.03 4293952400
598.59998 5609.9399 14021.63 4293952400
606.71002 5619.4902 14024.04 4293952400
610.88 5617.7598 14022.83 4293952400
615.16998 5617.1001 14026.25 4293952400
619.20001 5614.1401 14023.91 4293952400
622.48999 5609.4502 14019.07 4293952400
625.96002 5611.2798 14026.48 4293952400
629.92999 5607.75 14022.75 4293952400
634.02002 5605.4502 14020.15 4293952400
638.77002 5608.9302 14030.08 4293952400
643.66998 5618.4102 14027.68 4293952400
645.66998 5607.3198 14022.21 4293952400
655.40997 5606.75 14023.61 4293952400
658.88 5603.8599 14021.36 4293952400
675.77002 5603.77 14022.21 4293952400
679.21997 5600.7598 14021.63 4293952400
688.67999 5611.2598 14025.17 4293952400
693.09003 5607.1899 14018.38 4293952400
697.59998 5608.3301 14022.56 4293952400
700.46002 5605 14017.17 4293952400
704.34998 5605.5601 14021.71 4293952400
709.09003 5608.5098 14028.49 4293952400
713.25 5602.52 14020.86 4293952400
717.69 5603.0801 14023.64 4293952400
721.08002 5599.7402 14028.14 4293952400
724.23999 5594.6201 14018.49 4293952400
734.03003 5598.5898 14019.74 4293952400
750.31 5593.71 14020.82 4293952400
754.22998 5594.4302 14021.94 4293952400
758.20001 5591.48 14017.95 4293952400
765.59998 5589.6802 14019.88 4293952400
770.03998 5590.2402 14022.75 4293952400
778.71997 5597.6401 14022.56 4293952400
781.92999 5593.23 14022.52 4293952400
785.71997 5589.04 14017.4 4293952400
789.78998 5586.9199 14021.36 4293952400
794.31 5587.9702 14025.54 4293952400
797.10999 5584.5898 14020.15 4293952400
801.02002 5585.2002 14023.03 4293952400
805.15002 5583.5498 14018.49 4293952400
809.5 5583.4102 14021.63 4293952400
814.03998 5584.5601 14024.15 4293952400
816.66998 5580.0698 14015.97 4293952400
822.82001 5592.1099 14020.63 4293952400
826.88 5589.9702 14024.58 4293952400
830.54999 5585.1602 14017.98 4293952400
834.77002 5584.1099 14024.73 4293952400
837.23999 5578.7202 14020.15 4293952400
843.48999 5587.4902 14024.58 4293952400
847.48999 5584.9199 14023.64 4293952400
851.65997 5583.5298 14025.67 4293952400
855.22998 5581.8101 14022.79 4293952400
858.60999 5578.8701 14018.79 4293952400
863.28998 5577.2798 14022.48 4293952400
867.78998 5578.0601 14020.28 4293952400
871.77002 5575.4702 14019.34 4293952400
874.79999 5573.8599 14016.55 4293952400
878.94 5572.2998 14020.15 4293952400
884.66998 5580.8398 14018.12 4293952400
888.44 5576.9302 14017.71 4293952400
892.31 5573.7002 14017.13 4293952400
894.97998 5569.8599 14018.49 4293952400
901.35999 5578.8501 14017.85 4293952400
905.52002 5577.3999 14019.77 4293952400
909.66998 5575.9302 14021.71 4293952400
916.94 5573.3701 14022.25 4293952400
921.89001 5573.46 14018.65 4293952400
925.64001 5569.6201 14016.59 4293952400
930.21002 5570.7202 14019.2 4293952400
936.81 5567.4502 14021.67 4293952400
940.22998 5561.7202 14018.76 4293952400
946.87 5571.7598 14020.9 4293952400
952.95001 5565.5098 14019.74 4293952400
956.65997 5561.5298 14019.34 4293952400
960.07001 5559.0098 14018.49 4293952400
964.22998 5557.7202 14017.1 4293952400
980.33002 5555.5898 14016.83 4293952400
984.89001 5556.5298 14021.09 4293952400
988.09003 5552.8501 14017.37 4293952400
993.09998 5562.4702 14019.77 4293952400
996.83002 5558.6899 14016.05 4293952400
1001.24 5555.73 14018.52 4293952400
1004.63 5553.1802 14017.67 4293952400
1007.88 5549.8599 14018.76 4293952400
1018.03 5557.2798 14020.04 4293952400
1021.76 5553.5898 14014.66 4293952400
1026.26 5554.1299 14014.12 4293952400
1029.53 5553.8999 14018.92 4293952400
1033.89 5553.6602 14020.32 4293952400
1038.7 5552.8799 14018.65 4293952400
1042.8199 5551.3101 14020.59 4293952400
1046.59 5547.9702 14020.01 4293952400
1049.66 5546.71 14020.28 4293952400
1053.4301 5543.3301 14019.61 4293952400
1059.3 5551.0298 14017.85 4293952400
1063.46 5546.8198 14019.2 4293952400
1069.75 5542.2598 14018.79 4293952400
1073.74 5537.23 14012.29 4293952400
1082.64 5537.7002 14019.61 4293952400
1086.74 5538.8799 14020.55 4293952400
1094.8 5535.04 14013.14 4293952400
1099.22 5535.04 14021.09 4293952400
1107.47 5537.71 14016.05 4293952400
1110.8101 5535.0898 14015.2 4293952400
1114.6801 5529.6299 14015.43 4293952400
1119.28 5530.5298 14017.95 4293952400
1131.75 5534.8398 14015.24 4293952400
1135.98 5533.8799 14016.9 4293952400
1138.1801 5525.79 14021.63 4293952400
1144.4399 5534.6802 14019.24 4293952400
1145.48 5523.6699 14020.15 4293952400
1151.62 5531.9302 14018.12 4293952400
1155.6 5529.8101 14016.9 4293952400
1159.6899 5528.1899 14018.92 4293952400
1161.99 5523.3198 14014.08 4293952400
1175.88 5526.21 14016.63 4293952400
484.85001 5644.4702 14023.6 4293952400
488.48999 5642.4702 14019.43 4293952400
492.35001 5642.96 14027.29 4293952400
500.5 5636.46 14024.66 4293952400
504.76001 5635.4102 14024.93 4293952400
508.51001 5634.6499 14031.67 4293952400
518.21002 5639.48 14024.42 4293952400
522.59003 5639.6802 14025.9 4293952400
526.15997 5636.9399 14021.91 4293952400
529.34003 5635.9702 14022.18 4293952400
534.37 5637.2998 14024.69 4293952400
538.51001 5634.9902 14023.84 4293952400
542.79999 5634.2002 14019.03 4293952400
550.44 5634.3198 14026.99 4293952400
554.90997 5629.8999 14026.86 4293952400
558.33002 5625.9199 14021.75 4293952400
563.96002 5633.1699 14023.57 4293952400
567.54999 5630.8901 14022.72 4293952400
571.01001 5627.3501 14020.66 4293952400
575.90002 5627.23 14025.47 4293952400
579.47998 5624.9399 14024.62 4293952400
584.94 5635.4702 14026.75 4293952400
592.26001 5632.4102 14021.09 4293952400
595.41998 5620.98 14018.97 4293952400
607.90997 5630.6299 14022.75 4293952400
612.41998 5631.8701 14027.02 4293952400
620.31 5624.1602 14019.85 4293952400
624.04999 5623.4502 14024.93 4293952400
627.14001 5621.8599 14023.81 4293952400
631.17999 5618.8901 14021.48 4293952400
636.21002 5619.9399 14027.41 4293952400
639.79999 5617.9102 14021.48 4293952400
647.48999 5618.3901 14020.93 4293952400
651.87 5618.48 14022.42 4293952400
656.65002 5617.3198 14020.93 4293952400
660.13 5614.4302 14018.69 4293952400
663.34998 5613.9399 14020.36 4293952400
668.92999 5624.2002 14025.9 4293952400
672.88 5620.6401 14022.18 4293952400
677.32001 5616.6001 14025.2 4293952400
680.90997 5614.7002 14027.41 4293952400
685.20001 5622.9902 14023.87 4293952400
690.19 5623.5498 14026.75 4293952400
694.76001 5620.6899 14021.09 4293952400
699.06 5620.04 14022.75 4293952400
702.82001 5619.46 14024.42 4293952400
706.03998 5618.98 14026.17 4293952400
710.69 5616.77 14020.24 4293952400
715.20001 5613.5601 14019.58 4293952400
722.37 5609.7402 14024.08 4293952400
726.12 5609.1401 14025.74 4293952400
731.83002 5615.1899 14023.03 4293952400
735.87 5612.6201 14023.84 4293952400
739.60999 5607.79 14019 4293952400
747.10999 5606.6099 14022.42 4293952400
752.09998 5607.0801 14025.2 4293952400
756.19 5604.8999 14019.27 4293952400
759.87 5603.8398 14017.88 4293952400
767.27002 5601.9302 14021.48 4293952400
771.48999 5600.7798 14020.09 4293952400
777.03998 5609.2202 14021.36 4293952400
783.40002 5603.77 14019.85 4293952400
787.59998 5602.4302 14021.87 4293952400
791.35999 5598.0098 14020.09 4293952400
795.65002 5597.3999 14020.09 4293952400
798.84998 5596.8301 14021.75 4293952400
802.69 5596.8799 14023.23 4293952400
807.53003 5596.2598 14021.48 4293952400
811.10999 5594.5 14020.36 4293952400
815.41998 5593.9902 14018.69 4293952400
818.87 5595.1099 14024.62 4293952400
824.45001 5603.2402 14019.43 4293952400
828.10999 5598.2402 14016.25 4293952400
832.98999 5597.8999 14021.06 4293952400
836.17999 5593.5298 14019.27 4293952400
839.09003 5591.0498 14020.09 4293952400
845.26001 5599.2402 14023.03 4293952400
849.09998 5595.5498 14019.3 4293952400
853.09003 5592.8999 14020.12 4293952400
857.72998 5598.1299 14021.09 4293952400
860.40002 5590.5298 14019 4293952400
865.10999 5589.02 14020.93 4293952400
869.59998 5589.6802 14020.39 4293952400
873.51001 5586.5698 14018.15 4293952400
876.81 5586.6201 14019.54 4293952400
881.06 5585.77 14022.96 4293952400
886.42999 5591.9199 14016.83 4293952400
891.09998 5590.1899 14022.18 4293952400
897.29999 5580.8701 14017.3 4293952400
903.52002 5592.1802 14022.21 4293952400
907.31 5588.4502 14018.49 4293952400
911.48999 5587.0898 14018.76 4293952400
918.28998 5581.6201 14013.92 4293952400
924.17999 5587.3198 14024.42 4293952400
927.85999 5582.96 14021.06 4293952400
932.25 5582.9102 14020.79 4293952400
938.47998 5577.3901 14017.61 4293952400
942 5572.21 14016.09 4293952400
955.03003 5577.6899 14021.33 4293952400
958.46997 5572.0601 14016.76 4293952400
966.44 5570.4502 14020.09 4293952400
970.92999 5570.9199 14021.21 4293952400
973.94 5569.2598 14018.42 4293952400
977.96997 5567.1899 14018.97 4293952400
982.57001 5568.3101 14019.81 4293952400
986.84998 5567.5601 14019.81 4293952400
990.54999 5566.71 14023.23 4293952400
995.48999 5575.8599 14022.48 4293952400
998.90997 5570.2998 14016.25 4293952400
1004.38 5573.1201 14019.7 4293952400
1007.47 5565.7998 14020.66 4293952400
1013.72 5560.79 14018.97 4293952400
1020.16 5568.8799 14020.24 4293952400
1024.4301 5568.1001 14020.24 4293952400
1028.3 5565.1401 14012.83 4293952400
1031.88 5566.6099 14021.91 4293952400
1035.9399 5564.6802 14019.03 4293952400
1040.76 5563.8901 14017.37 4293952400
1044.99 5562.9102 14020.79 4293952400
1048.67 5558.98 14018.73 4293952400
1055.73 5555.48 14021.21 4293952400
1062.36 5564.1899 14022.21 4293952400
1065.46 5557.27 14016.52 4293952400
1071.77 5552.75 14016.22 4293952400
1076.55 5551.71 14017.88 4293952400
1080.9 5551.4302 14019.27 4293952400
1084.5699 5547.5898 14015.55 4293952400
1092.62 5549.1401 14019.27 4293952400
1097.3199 5547.75 14016.22 4293952400
1101.84 5548.27 14025.47 4293952400
1109.6899 5548.7998 14013.1 4293952400
1113.89 5547.6499 14018.19 4293952400
1117.37 5542.9502 14018.15 4293952400
1122.09 5544.4399 14022.15 4293952400
1130.11 5548.4902 14016.56 4293952400
1134.34 5547.52 14018.22 4293952400
1138.46 5545.98 14018.49 4293952400
1140.22 5535.6602 14017.57 4293952400
1146.9399 5546.7998 14020.82 4293952400
1147.65 5534.1299 14017.57 4293952400
1153.9 5542.9102 14016.83 4293952400
1157.9 5540.8101 14015.71 4293952400
1161.9 5538.71 14014.59 4293952400
1164.9 5537.1699 14018.19 4293952400
1168.71 5534.1899 14020.66 4293952400
1172.46 5530.9902 14016.76 4293952400
477.42999 5659.8501 14030.92 4293952400
480.67999 5646.6602 14026.21 4293952400
486.01001 5657.96 14028.05 4293952400
489.66 5655.9102 14023.79 4293952400
493.32999 5654.1299 14026 4293952400
497.39999 5650.7998 14020.61 4293952400
502.60999 5654.1001 14024.06 4293952400
505.76999 5646.6802 14021.97 4293952400
509.16 5641.8701 14020.55 4293952400
514.5 5652.5698 14021.01 4293952400
519.34003 5651.7998 14026 4293952400
523.62 5650.8398 14024.61 4293952400
527.25 5648.7002 14022.1 4293952400
531.14001 5649.3501 14026.54 4293952400
535.38 5647.9302 14022.1 4293952400
539.63 5646.7402 14024.03 4293952400
544.09003 5647.6602 14023.49 4293952400
551.59003 5646.04 14027.08 4293952400
555.78998 5638.8198 14020.01 4293952400
559.60999 5638.8198 14024.82 4293952400
565.20001 5645.48 14025.15 4293952400
568.84998 5643.7598 14025.7 4293952400
572.60999 5643.0801 14030.78 4293952400
576.98999 5637.8198 14022.79 4293952400
581.23999 5636.7002 14023.06 4293952400
586.15997 5647.2202 14026.93 4293952400
588.92999 5637.0698 14025.94 4293952400
593.66998 5645.8301 14025.45 4293952400
601.21997 5634.5298 14024.82 4293952400
609.12 5641.8101 14021.55 4293952400
614.04999 5641.8398 14022.94 4293952400
617.60999 5639.4199 14023.76 4293952400
622.16998 5641.0298 14032.83 4293952400
625.15997 5633.4702 14020.86 4293952400
628.26001 5631.8799 14019.74 4293952400
632.84003 5628.8398 14017.41 4293952400
637.34998 5630.0698 14021.67 4293952400
641.33002 5631.3501 14025.94 4293952400
644.96002 5629.6899 14024.82 4293952400
648.90002 5630.6699 14022.52 4293952400
653.22998 5630.2798 14020.86 4293952400
658.08002 5629.6001 14022.52 4293952400
661.5 5626.1499 14018.89 4293952400
664.85999 5626.77 14023.33 4293952400
670.32001 5635.8901 14026 4293952400
674.21002 5631.7598 14020.89 4293952400
678.52002 5626.6099 14021.13 4293952400
687.16998 5634.6499 14024.06 4293952400
696.28003 5632.96 14022.67 4293952400
700.37 5630.6001 14020.07 4293952400
704.21002 5630.6201 14023.21 4293952400
707.76001 5628.3198 14020.61 4293952400
712.25 5629.1099 14020.07 4293952400
716.78003 5625.9399 14019.5 4293952400
720.94 5624.1602 14018.38 4293952400
727.56 5620.29 14024.55 4293952400
733.20001 5625.7402 14020.34 4293952400
736.96002 5620.9102 14015.5 4293952400
741.59998 5622.8799 14027.63 4293952400
748.59003 5617.7202 14021.13 4293952400
753.59998 5618.2202 14024 4293952400
757.76001 5616.6001 14019.46 4293952400
761.38 5614.9399 14016.59 4293952400
768.79999 5613.0601 14020.28 4293952400
773.27002 5613.6899 14021.4 4293952400
778.58002 5620.3198 14020.07 4293952400
784.88 5614.3501 14017.26 4293952400
790.53003 5619.3398 14019.8 4293952400
793.5 5613.1802 14027.06 4293952400
797.46997 5610.2002 14023.06 4293952400
800.53998 5608.6201 14020.28 4293952400
804.53003 5609.6802 14026.21 4293952400
809.47998 5609.7598 14024.27 4293952400
813.34003 5606.1001 14020.55 4293952400
817.13 5605.7402 14017.14 4293952400
820.15997 5603.9302 14017.68 4293952400
826.34003 5616.04 14022.4 4293952400
829.90997 5610.4702 14017.83 4293952400
834.63 5608.98 14019.77 4293952400
838.01001 5605.7598 14020.86 4293952400
840.59003 5601.02 14016.02 4293952400
846.84998 5609.7598 14020.34 4293952400
850.87 5607.2202 14019.5 4293952400
854.78003 5604.02 14018.92 4293952400
858.71002 5604.5498 14021.7 4293952400
863.28003 5609.23 14021.28 4293952400
866.83002 5600.1201 14019.74 4293952400
871.78003 5600.1499 14017.8 4293952400
879.19 5598.3101 14018.07 4293952400
882.63 5595.7202 14018.89 4293952400
887.45001 5598.3701 14017.53 4293952400
892.88 5601.3701 14019.22 4293952400
896.84003 5598.5801 14021.7 4293952400
905.12 5602.1299 14018.13 4293952400
909.28998 5600.6602 14020.07 4293952400
913.39001 5598.7402 14018.95 4293952400
920.77002 5596.6699 14022.64 4293952400
925.64001 5596.1602 14017.56 4293952400
929.59998 5593.46 14018.38 4293952400
934.09998 5593.96 14019.5 4293952400
938.21002 5595.4302 14017.02 4293952400
941.41998 5594.8901 14017.02 4293952400
950.53998 5593.3501 14017.02 4293952400
957.02002 5589.29 14021.43 4293952400
960.65997 5584.79 14019.74 4293952400
964.72998 5582.8398 14018.62 4293952400
968.90002 5581.4302 14018.89 4293952400
972.85999 5582 14020.01 4293952400
975.85999 5580.29 14017.14 4293952400
980.13 5579.4702 14018.89 4293952400
984.71997 5580.4902 14021.4 4293952400
989.09998 5580.2798 14022.79 4293952400
992.53998 5577.8501 14020.28 4293952400
997.15997 5585.23 14017.02 4293952400
1000.99 5581.9199 14016.44 4293952400
1005.53 5579.5098 14020.31 4293952400
1009.67 5577.9702 14022.25 4293952400
1012.4 5574.7402 14023.33 4293952400
1016.37 5572.2998 14019.16 4293952400
1022.51 5581.71 14021.55 4293952400
1026.15 5577.4199 14014.69 4293952400
1030.86 5578.9902 14018.68 4293952400
1034.15 5575.8701 14016.44 4293952400
1038.12 5576.3901 14017.56 4293952400
1043.35 5577.7402 14023.21 4293952400
1047.8101 5574.96 14022.37 4293952400
1055.36 5576.8501 14022.67 4293952400
1057.9399 5567.0698 14021.4 4293952400
1064.36 5574.6401 14019.52 4293952400
1071.05 5566.23 14015.78 4293952400
1075.67 5570.0698 14015.63 4293952400
1078.6801 5562.71 14016.59 4293952400
1083.16 5563.02 14019.46 4293952400
1086.95 5559.7202 14017.14 4293952400
1091.58 5560.7998 14018.07 4293952400
1095.45 5560.7202 14017.8 4293952400
1100.87 5565.71 14017.02 4293952400
1103.59 5557.0601 14018.62 4293952400
1108.05 5557.2002 14023.06 4293952400
1112.23 5561.5098 14016.17 4293952400
1116.1 5558.6802 14016.99 4293952400
1119.47 5553.3799 14015.47 4293952400
1124.09 5554.3198 14018.07 4293952400
1132.47 5560.0601 14016.74 4293952400
1140.72 5557 14017.29 4293952400
1143.01 5546.52 14016.29 4293952400
1149.5699 5543.4102 14012.02 4293952400
1160.55 5553.46 14018.68 4293952400
1164.2 5549.6699 14013.3 4293952400
1167.62 5547.4702 14015.5 4293952400
1171.03 5545.1899 14019.46 4293952400
1175.03 5543.0801 14018.35 4293952400
457.37 5668.5498 14023.12 4293952400
461.84 5662.96 14021.88 4293952400
469.35999 5661.3799 14027.24 4293952400
472.98001 5658.8901 14019.92 4293952400
478.28 5669.9102 14026.84 4293952400
481.63 5657.8301 14024.91 4293952400
487.42001 5667.96 14023.97 4293952400
491.42999 5670.02 14027.95 4293952400
495.01001 5667.1201 14027.38 4293952400
499.39001 5667.0801 14032.1 4293952400
503.19 5660.6099 14024.76 4293952400
507.84 5663.6401 14021.64 4293952400
510.26999 5654.1802 14022.13 4293952400
516.04999 5663.6899 14019.7 4293952400
520.47998 5664.1602 14027.66 4293952400
524.5 5660.3198 14019.13 4293952400
536.71002 5662.04 14026.17 4293952400
541.29999 5658.4399 14024.21 4293952400
545.77002 5659.3701 14023.67 4293952400
552.63 5656.7402 14022.73 4293952400
557.12 5652.25 14024.37 4293952400
561.32001 5650.48 14024.91 4293952400
566.37 5657.23 14025.33 4293952400
569.87 5653.8999 14019.95 4293952400
573.57001 5652.5601 14025.3 4293952400
578.31 5650.7202 14025.85 4293952400
587.63 5656.1401 14018.31 4293952400
589.97998 5647.1001 14021.86 4293952400
594.91998 5657.6899 14023.97 4293952400
597.96997 5645.0898 14018.99 4293952400
602.40997 5645.6802 14023.52 4293952400
610.51001 5654.6699 14024.51 4293952400
615.26001 5652.98 14021.64 4293952400
618.96002 5651.7202 14025.33 4293952400
622.96002 5648.1899 14021.61 4293952400
626.52002 5645.7598 14022.43 4293952400
629.83002 5645.8901 14025.58 4293952400
634.48999 5643.52 14022.98 4293952400
638.67999 5641.7998 14021.86 4293952400
643.07001 5641.8701 14023.25 4293952400
646.10999 5639.71 14020.74 4293952400
650.26001 5642.3999 14022.7 4293952400
654.91998 5644.8398 14028.08 4293952400
659.12 5638.5 14015.66 4293952400
663.08002 5639.5498 14023.25 4293952400
666.79999 5638.5498 14021.86 4293952400
672.06 5645.8301 14021.91 4293952400
676.03003 5642.2998 14018.29 4293952400
680 5638.8901 14022.7 4293952400
683.47998 5635.8701 14022.13 4293952400
688.53003 5645.8101 14022.85 4293952400
693.34003 5644.73 14019.7 4293952400
697.65997 5644.0801 14021.37 4293952400
701.76001 5641.7598 14018.86 4293952400
705.76001 5643 14023.12 4293952400
709.29999 5640.6001 14022.18 4293952400
713.79999 5641.3901 14021.64 4293952400
718.48999 5639.3599 14023.94 4293952400
722.35999 5635.27 14017.08 4293952400
729.39001 5630.2202 14020.47 4293952400
734.58002 5636.3301 14017.74 4293952400
738.78998 5634.8901 14021.34 4293952400
743.70001 5638.8101 14022.85 4293952400
746.40997 5630.21 14016.23 4293952400
750.29999 5630.54 14024.09 4293952400
755.09998 5629.4399 14021.04 4293952400
760.28998 5635.3101 14021.64 4293952400
763.27002 5628.8999 14022.43 4293952400
770.47998 5625.3198 14021.86 4293952400
774.96002 5625.9502 14022.98 4293952400
780.37 5633.2402 14021.37 4293952400
787.45001 5628.79 14024.49 4293952400
791.44 5625.7998 14020.5 4293952400
794.75 5622.0498 14020.2 4293952400
798.96997 5620.77 14020.47 4293952400
802.5 5618.5298 14016.2 4293952400
806.16998 5617.3198 14016.48 4293952400
811 5620.2998 14021.59 4293952400
815.12 5618.3398 14022.13 4293952400
819.45001 5617.8999 14018.71 4293952400
822.33002 5614.98 14016.48 4293952400
828.59003 5627.6401 14022.58 4293952400
832.26001 5622.6299 14019.4 4293952400
836.39001 5620.77 14018.29 4293952400
839.58002 5616.2798 14018.17 4293952400
843.29999 5615.4302 14023.25 4293952400
848.45001 5620.3198 14017.74 4293952400
852.64001 5618.8999 14019.68 4293952400
856.46997 5615.0898 14017.62 4293952400
860.33002 5615.1099 14019.1 4293952400
863.98999 5613.8701 14019.38 4293952400
868.71997 5612.3501 14021.31 4293952400
874.67999 5618.7998 14019.98 4293952400
877.34003 5611.1201 14019.65 4293952400
884.38 5606.79 14017.59 4293952400
888.46997 5604.79 14018.13 4293952400
891.03003 5617.48 14021.09 4293952400
894.56 5611.8799 14016.53 4293952400
898.62 5609.6802 14020.5 4293952400
901.13 5604.6899 14018.99 4293952400
907.82001 5615.4102 14022.58 4293952400
911.28003 5612.8701 14021.64 4293952400
915.09998 5609.25 14016.26 4293952400
919.78003 5610.7998 14021.91 4293952400
922.84003 5605.9302 14017.08 4293952400
932.09003 5605.0801 14016.8 4293952400
939.27002 5601.77 14019.38 4293952400
946.87 5597.75 14020.47 4293952400
952.52002 5604.9902 14017.2 4293952400
958.71997 5599.23 14017.35 4293952400
962.65997 5596.4302 14019.92 4293952400
967.03003 5596.1299 14022.98 4293952400
971.01001 5593.6201 14020.47 4293952400
974.78003 5593.04 14018.71 4293952400
978 5592.48 14018.71 4293952400
982.46997 5592.7598 14023.25 4293952400
987.63 5593.79 14024.09 4293952400
991.17999 5592.02 14021.31 4293952400
994.59998 5589.4702 14020.47 4293952400
999.77002 5596.75 14017.2 4293952400
1003.71 5594 14018.01 4293952400
1007.42 5589.98 14017.62 4293952400
1012.53 5593.77 14017.47 4293952400
1014.53 5583.4502 14016.48 4293952400
1018.28 5582.77 14016.48 4293952400
1024.4301 5592.1802 14018.86 4293952400
1028.7 5591.29 14020.52 4293952400
1032.9 5590.0498 14017.47 4293952400
1036.72 5589.6899 14022.18 4293952400
1040.71 5587.3101 14016.26 4293952400
1045.85 5588.1001 14020.52 4293952400
1049.5601 5584.2798 14016.8 4293952400
1056.26 5581.5698 14019.1 4293952400
1060.25 5579.2202 14022.98 4293952400
1066.14 5583.9902 14014.05 4293952400
1070.03 5581.0801 14016.53 4293952400
1074.04 5578.8599 14018.83 4293952400
1081.15 5575.4399 14019.65 4293952400
1085.62 5572.8101 14015.39 4293952400
1089.64 5570.6499 14015.93 4293952400
1095.11 5578.77 14018.86 4293952400
1098.64 5576.8901 14015.99 4293952400
1101.78 5570.3198 14015.11 4293952400
1106.08 5566.8398 14014.54 4293952400
1109.91 5566.54 14017.59 4293952400
1114.96 5572.3901 14014.87 4293952400
1118.3 5569.6602 14015.69 4293952400
1122.02 5566.0498 14018.44 4293952400
1126.3101 5565.2998 14016.78 4293952400
1135.16 5573.2798 14021.09 4293952400
1139.74 5571.2002 14018.31 4293952400
1142.98 5567.9702 14015.99 4293952400
1145.62 5559.1899 14019.26 4293952400
1149.23 5557.8599 14017.87 4293952400
1152.4301 5557.2002 14017.87 4293952400
1159.61 5567.6699 14019.7 4293952400
1163.02 5562.6699 14013.21 4293952400
1167.09 5563.4702 14019.13 4293952400
