# .PCD v0.7 - Point Cloud Data file format
VERSION 0.7
FIELDS x y z rgb
SIZE 4 4 4 4
TYPE F F F U
COUNT 1 1 1 1
WIDTH 72
HEIGHT 1
VIEWPOINT 0 0 0 1 0 0 0
POINTS 72
DATA ascii
-2368.1101 9331.3496 14181.49 4283973108
-2361.3301 9334.6602 14189.63 4283973108
-2353.97 9339.4902 14189.48 4283973108
-2346.23 9339 14187.46 4283973108
-2335.1399 9347.9199 14196.23 4283973108
-2327.97 9349.71 14196.23 4283973108
-2320.03 9352.2305 14201.43 4283973108
-2303.24 9365.1904 14199.37 4283973108
-2287.73 9367.9199 14203.7 4283973108
-2355.5901 9345.9004 14175.81 4283973108
-2341.49 9350.4805 14178.75 4283973108
-2335.95 9351.1602 14179.21 4283973108
-2328.1699 9350.5 14175.49 4283973108
-2321.26 9357.1797 14186.97 4283973108
-2315.1101 9363.0996 14193.26 4283973108
-2307.72 9360.1699 14190.83 4283973108
-2303.4199 9365.9297 14178.54 4283973108
-2295.5801 9368.8896 14181.48 4283973108
-2288.52 9371.1797 14186.67 4283973108
-2280.8501 9370.9199 14180.7 4283973108
-2275.95 9374.2402 14186.67 4283973108
-2268.8701 9376.4902 14184.51 4283973108
-2262.3201 9380.9004 14190.01 4283973108
-2255.28 9383.2998 14189.55 4283973108
-2244.23 9388.7695 14195.06 4283973108
-2237.7 9393.3203 14202.27 4283973108
-2344.1899 9361.2402 14173.14 4283973108
-2338.22 9360.2305 14171.04 4283973108
-2323.46 9366.04 14177.01 4283973108
-2315.49 9364.6602 14173.66 4283973108
-2309.3401 9366.75 14178.85 4283973108
-2305.3601 9377.6904 14174.08 4283973108
-2297.8101 9377.9697 14173.3 4283973108
-2290.74 9380.2695 14178.5 4283973108
-2283.6201 9382.3096 14174.54 4283973108
-2277.74 9381.6299 14175.93 4283973108
-2271.8201 9388.7002 14179.58 4283973108
-2263.71 9386.6602 14176.79 4283973108
-2239.0801 9399.0898 14189.04 4283973108
-2231.1101 9397.6299 14185.7 4283973108
-2325.71 9375.1104 14168.83 4283973108
-2318.1499 9375.4297 14168.04 4283973108
-2308.6201 9390.9199 14172.17 4283973108
-2300.03 9387.0498 14165.12 4283973108
-2293.3201 9390.8301 14171.08 4283973108
-2286.03 9392.21 14167.59 4283973108
-2274.22 9398.6104 14172.63 4283973108
-2265.8899 9395.6904 14168.52 4283973108
-2259.6399 9401.4297 14173.1 4283973108
-2253.1699 9402.2803 14173.56 4283973108
-2247.02 9404.4502 14173.1 4283973108
-2241.1899 9407.9805 14179.07 4283973108
-2337.1599 9386.6104 14162.96 4283973108
-2328.3701 9385.8301 14163.11 4283973108
-2321 9386.96 14163.57 4283973108
-2314.8 9388.8896 14167.06 4283973108
-2310.6001 9399.0098 14161.03 4283973108
-2303.0701 9399.46 14161.96 4283973108
-2295.74 9400.7197 14164.13 4283973108
-2288.8501 9403.7998 14163.2 4283973108
-2281.8101 9402.3096 14161.57 4283973108
-2276.22 9406.8701 14163.2 4283973108
-2268.6799 9407.29 14164.13 4283973108
-2262.79 9414.5195 14169.48 4283973108
-2254.96 9409.7197 14162.89 4283973108
-2249.99 9416.8799 14169.94 4283973108
-2316.8201 9397.0801 14157.54 4283973108
-2297.95 9409.79 14155.93 4283973108
-2290.6399 9411.1699 14152.44 4283973108
-2283.3899 9408.8604 14149.58 4283973108
-2278 9414.2402 14152.44 4283973108
-2271.6799 9419.71 14160.97 4283973108
