# .PCD v0.7 - Point Cloud Data file format
VERSION 0.7
FIELDS x y z rgb
SIZE 4 4 4 4
TYPE F F F U
COUNT 1 1 1 1
WIDTH 1218
HEIGHT 1
VIEWPOINT 0 0 0 1 0 0 0
POINTS 1218
DATA ascii
-272.66 6530.1299 14531.33 4290525318
-267.63 6529.7598 14528.19 4290525318
-259.41 6528.2002 14523.99 4290525318
-253.61 6524 14516.01 4290525318
-243.60001 6524.3701 14499.24 4290525318
-234.60001 6518.0098 14495.55 4290525318
-229.60001 6518.0698 14499.01 4290525318
-224.47 6514.3901 14492.3 4290525318
-219.53999 6516.4502 14496.49 4290525318
-215.07001 6514.0098 14492.61 4290525318
-210.17 6517.04 14489.68 4290525318
-204.53 6516.6802 14486.63 4290525318
-200.14999 6516.8599 14484.86 4290525318
-195.71001 6514.4502 14481.07 4290525318
-190.78999 6517.2202 14483.17 4290525318
-185.58 6510.1899 14474.67 4290525318
-179.96001 6510.23 14478.12 4290525318
-175.78 6517.3999 14471.55 4290525318
-171.41 6517.48 14473.32 4290525318
-166.32001 6514.1899 14473.11 4290525318
-162.00999 6516.7998 14478.67 4290525318
-151.3 6513.2402 14472.05 4290525318
-147.56 6513.5098 14466.92 4290525318
-142.56 6513.52 14470.37 4290525318
-359.45999 6579.8198 14604.15 4290525318
-350.69 6581.3999 14610.34 4290525318
-326.97 6575.1099 14608.68 4290525318
-320.97 6568.7402 14571.53 4290525318
-316.53 6568.3398 14570.17 4290525318
-311.91 6563.8799 14567.23 4290525318
-307.76001 6556.3799 14553.91 4290525318
-302.63 6554.4399 14556.54 4290525318
-292.64001 6556.3101 14539.22 4290525318
-283.97 6545.1201 14537.75 4290525318
-278.51999 6550.0098 14523.91 4290525318
-273.12 6541.2598 14526.31 4290525318
-268.03 6539.5801 14522.12 4290525318
-259.07999 6535.54 14512.36 4290525318
-254.00999 6534.4199 14511.31 4290525318
-249.24001 6540.98 14505.04 4290525318
-240.2 6534.1099 14498.3 4290525318
-234.50999 6532.8398 14500.61 4290525318
-229.99001 6529.1001 14495.68 4290525318
-224.27 6526.71 14491.8 4290525318
-219.8 6524.4399 14484.56 4290525318
-215.44 6525.0801 14489.38 4290525318
-204.92 6528.9399 14486.04 4290525318
-199.89 6528.5601 14482.99 4290525318
-196.07001 6526.7002 14480.48 4290525318
-191.11 6528.2402 14479.85 4290525318
-185.92 6521.8701 14472.81 4290525318
-180.28 6521.8701 14476.17 4290525318
-171.7 6528.5 14470 4290525318
-166.69 6528.4502 14475.12 4290525318
-161.69 6529.1099 14478.17 4290525318
-156.66 6528.04 14473.66 4290525318
-151.62 6526.77 14474.29 4290525318
-365.59 6599.02 14613.77 4290525318
-356.54001 6596.0601 14613.58 4290525318
-341.44 6598.3301 14611.27 4290525318
-332.48001 6584.0298 14602.89 4290525318
-327.01999 6576.1899 14583.07 4290525318
-321.64001 6582.3301 14573.72 4290525318
-316.98001 6577.5298 14562.61 4290525318
-312.28 6571.8301 14556.94 4290525318
-308.39999 6569.96 14556.12 4290525318
-303 6562.3799 14546.26 4290525318
-297.89999 6561.1802 14548.66 4290525318
-288.19 6555.23 14536.4 4290525318
-284.37 6554.2798 14530.21 4290525318
-273.51001 6550.4199 14518.78 4290525318
-268.39999 6548.73 14514.58 4290525318
-259.54001 6547.2798 14508.71 4290525318
-254.35001 6543.0298 14500.73 4290525318
-249.03999 6552.1001 14501.78 4290525318
-240.74001 6548.9302 14503.35 4290525318
-234.86 6542.6401 14494.54 4290525318
-224.64 6537.7402 14488.47 4290525318
-220.32001 6539.8599 14490.98 4290525318
-215.82001 6536.73 14487.41 4290525318
-210.28 6539.77 14484.48 4290525318
-205.25 6539.4199 14479.66 4290525318
-200.23 6539.6602 14477.98 4290525318
-196.41 6537.77 14477.24 4290525318
-191.41 6538.6499 14475.15 4290525318
-186.28 6534.7798 14473.67 4290525318
-180.62 6534.1602 14475.67 4290525318
-175.85001 6543.2402 14473.27 4290525318
-172.05 6542.02 14472.22 4290525318
-166.97 6539.4702 14471.79 4290525318
-161.98 6540.79 14476.29 4290525318
-366.26999 6611.3701 14613.12 4290525318
-361.16 6610.9199 14615.2 4290525318
-346.67999 6613.6401 14617.62 4290525318
-341.19 6605.7402 14599.58 4290525318
-336.23001 6595.5898 14600.88 4290525318
-327.48001 6585.4302 14575.6 4290525318
-322 6589.6802 14562.05 4290525318
-317.29999 6584.21 14549.48 4290525318
-312.75 6581.6299 14550.75 4290525318
-308.76999 6577.8999 14545.83 4290525318
-302.82001 6572.2402 14540.17 4290525318
-298.23001 6568.46 14536.92 4290525318
-293.10999 6566.8301 14532.82 4290525318
-284.76999 6563.48 14522.76 4290525318
-278.82999 6572.1299 14517.2 4290525318
-273.31 6560.8701 14514.06 4290525318
-268.85999 6559.8198 14511.33 4290525318
-264.48999 6560.73 14509.24 4290525318
-259.98001 6558.3599 14505.45 4290525318
-254.2 6555.3701 14500.21 4290525318
-249.46001 6563.1401 14498.43 4290525318
-241.00999 6556.1699 14491.62 4290525318
-235.28 6554.29 14492.57 4290525318
-230.16 6551.9199 14488.78 4290525318
-225.11 6551.3198 14490.78 4290525318
-220.05 6550.2998 14486.27 4290525318
-216.21001 6548.4102 14485.53 4290525318
-210.81 6556.3501 14478.62 4290525318
-200.69 6554.4702 14483.02 4290525318
-191.77 6550.9399 14474.63 4290525318
-186.67 6548.3101 14475.89 4290525318
-180.95 6545.8799 14472.02 4290525318
-176.16 6554.9199 14471.39 4290525318
-172.41 6555.5801 14474.43 4290525318
-167.23 6549.8701 14467.08 4290525318
-162.24001 6551.2002 14471.59 4290525318
-371.39001 6611.8701 14611.11 4290525318
-357.62 6627.7998 14627.74 4290525318
-346.91 6617.8501 14599.01 4290525318
-341.37 6609.29 14579.52 4290525318
-336.44 6599.8101 14582.29 4290525318
-332.51999 6597.4902 14576.73 4290525318
-327.91 6593.9902 14566.67 4290525318
-322.48001 6599.5498 14554.17 4290525318
-317.32001 6597.8999 14549.98 4290525318
-312.51999 6590.25 14541.91 4290525318
-308.57001 6587.1299 14538.35 4290525318
-303.39001 6584.5801 14539.62 4290525318
-298.14001 6580.2798 14533.33 4290525318
-293.63 6578.5098 14530.82 4290525318
-284.67001 6575.8701 14520.45 4290525318
-279.29999 6583.23 14513.92 4290525318
-273.76999 6571.9199 14510.7 4290525318
-269.31 6570.8599 14507.97 4290525318
-264.88 6570.5298 14503.15 4290525318
-249.95 6576.0698 14499.25 4290525318
-241.44 6567.8599 14489.72 4290525318
-235.85001 6570.2598 14485.32 4290525318
-230.55 6562.9502 14485.43 4290525318
-225.49001 6562.4302 14485.74 4290525318
-220.39999 6560.7002 14481.55 4290525318
-216.57001 6559.52 14480.5 4290525318
-211.03 6563.1699 14478.93 4290525318
-206.08 6565.9302 14482.8 4290525318
-200.98 6564.2202 14476.84 4290525318
-196.57001 6564.3198 14478.61 4290525318
-191.52 6563.8799 14475.47 4290525318
-187.16 6565.5498 14471.48 4290525318
-181.3 6558.7998 14472.86 4290525318
-176.50999 6567.8501 14472.22 4290525318
-162.53 6562.8398 14469.6 4290525318
-382.06 6631.6299 14618.69 4290525318
-362.82001 6641.3599 14626.51 4290525318
-357.78 6630.7798 14604.53 4290525318
-353.26001 6629.7002 14603.48 4290525318
-347.19 6623.25 14583.05 4290525318
-341.92001 6619.8301 14573.08 4290525318
-336.94 6609.6201 14576.07 4290525318
-333.04999 6607.9902 14570.2 4290525318
-328.37 6603.25 14557.41 4290525318
-322.95999 6609.3799 14548.05 4290525318
-317.85999 6609.0098 14546.68 4290525318
-313.07999 6602.0098 14538.21 4290525318
-309.07001 6597.6499 14531.93 4290525318
-303.79001 6593.1201 14530.69 4290525318
-298.60999 6590.7202 14528.59 4290525318
-294.01001 6587.04 14521.9 4290525318
-279.82001 6595.5601 14513.37 4290525318
-269.19 6583.2402 14505.65 4290525318
-260.92999 6582.3301 14502.92 4290525318
-255.08 6578.0601 14494.86 4290525318
-250.25 6583.96 14488.97 4290525318
-245.17 6583.46 14489.28 4290525318
-236.08 6576.4702 14484.26 4290525318
-230.98 6575.2598 14484.89 4290525318
-225.92 6574.7402 14485.21 4290525318
-220.77 6571.73 14478.2 4290525318
-216.39999 6573.0801 14482.7 4290525318
-211.37 6573.5801 14474.2 4290525318
-206.3 6573.1499 14471.06 4290525318
-201.38 6577.1802 14477.76 4290525318
-191.94 6578.1602 14477.44 4290525318
-187.35001 6572.3301 14471.7 4290525318
-180.94 6568.5898 14466.77 4290525318
-387.17001 6642.5601 14613.59 4290525318
-378.26999 6643.3398 14623.47 4290525318
-373.45001 6648.6699 14634.57 4290525318
-368.17999 6657.4102 14630.73 4290525318
-362.31 6643.6602 14603.62 4290525318
-358.28 6640.02 14597.02 4290525318
-353.69 6637.6499 14593.15 4290525318
-347.76999 6634.3799 14579.73 4290525318
-342.29001 6627.1001 14561.3 4290525318
-337.38 6618.2598 14565.44 4290525318
-333.45001 6615.9302 14559.89 4290525318
-328.89001 6613.7002 14552.65 4290525318
-322.79999 6619.2402 14541.92 4290525318
-318.26999 6617.5498 14537.73 4290525318
-313.51999 6611.1602 14530.63 4290525318
-309.51999 6607.4199 14525.72 4290525318
-304.54999 6609.75 14524.76 4290525318
-299.07999 6601.1499 14523.84 4290525318
-285.54999 6596.1099 14509.6 4290525318
-280.29999 6606.6802 14508.3 4290525318
-274.75 6595.3599 14505.1 4290525318
-269.59 6593.04 14499.54 4290525318
-265.79999 6593.27 14497.86 4290525318
-255.58 6591 14495.67 4290525318
-250.78999 6598.1401 14492.51 4290525318
-245.63 6595.8101 14486.96 4290525318
-241.64999 6590.6099 14484.44 4290525318
-236.49001 6588.1201 14482.26 4290525318
-231.63 6593.75 14483.18 4290525318
-226.25 6584.48 14479.02 4290525318
-221.22 6585.3501 14478.7 4290525318
-216.7 6582.25 14475.24 4290525318
-211.8 6587.1201 14476.39 4290525318
-206.12 6587.3799 14474.71 4290525318
-201.7 6587.5898 14473.02 4290525318
-197.21001 6585.7402 14470.52 4290525318
-192.24001 6588.5698 14472.71 4290525318
-187.74001 6585.9199 14473.97 4290525318
-392.51999 6657.4502 14611.61 4290525318
-387.89001 6654.9199 14612.89 4290525318
-383.63 6658.9102 14622.95 4290525318
-379.12 6658.27 14628.41 4290525318
-374.39999 6665.5098 14643.7 4290525318
-368.23999 6658.4902 14603.42 4290525318
-362.81 6652.8999 14596.1 4290525318
-358.64001 6646.6802 14583.87 4290525318
-353.34 6643.1802 14575.59 4290525318
-348.09 6640.4902 14563.53 4290525318
-342.87 6638.2202 14557.98 4290525318
-337.95001 6629.3901 14562.12 4290525318
-333.92001 6625.1499 14552.38 4290525318
-328.76999 6624.1802 14547.89 4290525318
-318.73999 6627.3701 14531.6 4290525318
-313.95001 6620.3501 14523.14 4290525318
-310.16 6621.0498 14527.96 4290525318
-304.78 6614.6802 14520.87 4290525318
-290.45999 6606.8599 14509.66 4290525318
-290.28 6617.3101 14504.91 4290525318
-280.73999 6617.1001 14503.54 4290525318
-275.35999 6610.02 14496.76 4290525318
-270.37 6612.1699 14499.17 4290525318
-266.34 6606.8301 14500.03 4290525318
-261.73001 6602.54 14492.07 4290525318
-255.94 6600.2402 14486.52 4290525318
-251.24001 6609.9102 14488.89 4290525318
-246.05 6606.8799 14483.66 4290525318
-226.02 6596.1899 14477.1 4290525318
-217.16 6596.4302 14478.77 4290525318
-211.56 6599.4502 14475.83 4290525318
-206.56 6601.5498 14478.24 4290525318
-201.42 6599.25 14471.01 4290525318
-404.07999 6668.3901 14614.78 4290525318
-398.69 6664.25 14605.05 4290525318
-380.17999 6676.8999 14626.6 4290525318
-374.63 6669.6899 14624.97 4290525318
-368.67999 6666.4399 14593.07 4290525318
-363.20999 6660.25 14582.62 4290525318
-359.04001 6654 14572.17 4290525318
-353.92999 6654.27 14572.17 4290525318
-348.64001 6650.9399 14558.75 4290525318
-343.44 6649.2998 14554.56 4290525318
-338.29001 6636.0298 14548.98 4290525318
-334.38 6634.3101 14544.79 4290525318
-329.60001 6640.8301 14541.93 4290525318
-323.73001 6638.21 14528.19 4290525318
-319.26999 6638.4199 14528.19 4290525318
-314.54001 6632.6899 14522.56 4290525318
-310.5 6628.2798 14516.19 4290525318
-305.26001 6625.1099 14516.1 4290525318
-300.07999 6623.27 14517.05 4290525318
-294.81 6619.0601 14507.32 4290525318
-286.78 6624.4199 14501.73 4290525318
-280.57001 6628.1699 14500.14 4290525318
-270.51999 6615.7798 14494.22 4290525318
-266.72 6616.0298 14490.77 4290525318
-261.64001 6616.21 14492.54 4290525318
-256.67999 6619.29 14487.82 4290525318
-250.95 6619.0601 14481.31 4290525318
-246.53 6619.8198 14484.45 4290525318
-242.62 6617.1802 14485.72 4290525318
-232.28 6612.23 14481.45 4290525318
-226.67 6615.3101 14476.72 4290525318
-222.03 6609.3501 14476.21 4290525318
-217.53 6607.46 14475.39 4290525318
-211.89999 6609.8599 14471.08 4290525318
-206.99001 6615.1899 14478.72 4290525318
-201.82001 6612.2598 14470.13 4290525318
-197.99001 6611.6001 14472.13 4290525318
-187.81 6610.5098 14472.76 4290525318
-409.14999 6677.8999 14610.29 4290525318
-404.98001 6683.3599 14617.92 4290525318
-399.78 6682.3398 14616.88 4290525318
-385.42999 6690.0298 14635.53 4290525318
-380.28 6678.6499 14617.44 4290525318
-374.23001 6673.75 14591.24 4290525318
-369.04999 6673.1299 14580 4290525318
-363.51001 6665.6401 14566.73 4290525318
-359.5 6662.54 14563.19 4290525318
-354.39001 6662.8198 14563.19 4290525318
-349.04999 6658.8599 14548.41 4290525318
-343.85001 6657.21 14544.23 4290525318
-338.22 6647.1299 14545.56 4290525318
-334.07999 6641.0098 14531.74 4290525318
-329.94 6647.6201 14543.88 4290525318
-324.23999 6648.71 14521.73 4290525318
-319.75 6648.2598 14520.27 4290525318
-315.06 6643.75 14519.14 4290525318
-311.07999 6640.6201 14515.6 4290525318
-305.82999 6637.4502 14515.51 4290525318
-300.72 6637.3301 14505.55 4290525318
-295.41 6632.6802 14509.55 4290525318
-291.17001 6637.52 14494 4290525318
-287.01001 6629.9102 14500.87 4290525318
-281.01001 6638.5801 14495.36 4290525318
-271.01999 6628.1201 14493.64 4290525318
-267.26001 6629.6499 14493.01 4290525318
-262.14999 6629.1499 14493.32 4290525318
-256.26001 6624.8701 14485.27 4290525318
-251.50999 6633.9102 14486.27 4290525318
-246.98 6632.1001 14483.78 4290525318
-237.17999 6625.04 14480.46 4290525318
-226.88 6621.46 14477.31 4290525318
-221.87 6623.5698 14479.72 4290525318
-218.16 6626.6001 14475.09 4290525318
-212.37 6624.73 14474.28 4290525318
-207.28999 6624.96 14472.59 4290525318
-202.23 6625.8198 14472.28 4290525318
-414.44 6690.7202 14609.34 4290525318
-409.91 6690.2998 14609.66 4290525318
-405.76999 6696.3799 14618.65 4290525318
-400.79001 6699.2002 14625.97 4290525318
-389.79001 6698.48 14624.84 4290525318
-384.95999 6692.96 14614.07 4290525318
-380.73001 6686.6001 14607.08 4290525318
-374.35999 6676.1099 14583.45 4290525318
-368.89001 6681.71 14571.01 4290525318
-364.14999 6677.3901 14564.74 4290525318
-359.42001 6673.1001 14556.7 4290525318
-354.84 6671.3501 14554.21 4290525318
-349.10001 6671.8799 14549.15 4290525318
-343.75 6667.6802 14539.43 4290525318
-339.06 6663.7998 14539.67 4290525318
-335.07001 6660.79 14532.67 4290525318
-330.39999 6656.8501 14534.58 4290525318
-324.84 6661.0098 14521.03 4290525318
-319.70001 6660.6401 14519.66 4290525318
-314.89001 6653.5801 14512.99 4290525318
-310.91 6650.52 14507.77 4290525318
-305.62 6646.6299 14507.91 4290525318
-300.34 6642.9302 14503 4290525318
-296.09 6647.9502 14502.54 4290525318
-286.91 6642.3398 14498.59 4290525318
-276.01001 6640.8799 14494.41 4290525318
-271.5 6639.8501 14489.91 4290525318
-267.10001 6641.3301 14490.96 4290525318
-262.48999 6637.6602 14484.36 4290525318
-256.70999 6636.5698 14483.32 4290525318
-251.92999 6644.9399 14482.86 4290525318
-247.42 6643.79 14481.82 4290525318
-243.48 6640.5298 14481.73 4290525318
-237.62 6637.3599 14479.87 4290525318
-227.25999 6632.5498 14472.23 4290525318
-222.24001 6634.6001 14476.32 4290525318
-218.34 6632.1602 14472.55 4290525318
-212.78999 6637.6802 14475.05 4290525318
-207.7 6637.9102 14473.37 4290525318
-420.10001 6698.7998 14605.47 4290525318
-410.78 6704.5698 14613.1 4290525318
-395.51999 6708.2998 14611.82 4290525318
-390.03 6702.6299 14606.2 4290525318
-385.42001 6700.98 14602.02 4290525318
-380.42999 6692.7402 14590.85 4290525318
-374.81 6684.1099 14571.41 4290525318
-360.01999 6684.1802 14553.26 4290525318
-355.29999 6679.9302 14545.31 4290525318
-349.47 6679.1099 14537.35 4290525318
-344.22 6676.8999 14530.13 4290525318
-339.35001 6669.3799 14537.11 4290525318
-335.42001 6667.6499 14532.93 4290525318
-330.76001 6664.1099 14522.88 4290525318
-325.41 6672.73 14519.04 4290525318
-320.20001 6671.0601 14514.86 4290525318
-315.5 6666.5698 14511.97 4290525318
-311.51999 6663.48 14508.52 4290525318
-306.19 6659.0298 14505.61 4290525318
-300.95999 6656.5498 14505.21 4290525318
-296.85999 6665.1802 14497.92 4290525318
-292.12 6659.1899 14499.12 4290525318
-281.79001 6657.0801 14493.58 4290525318
-276.41 6650.7002 14486.49 4290525318
-271.26001 6649.6499 14483.76 4290525318
-267.51999 6651.75 14486.17 4290525318
-262.95001 6649.3198 14482.31 4290525318
-257.17999 6648.8501 14482.63 4290525318
-252.3 6654.79 14475.03 4290525318
-247.19 6654.8501 14478.4 4290525318
-243.22 6650.96 14476.95 4290525318
-238.02 6648.46 14474.77 4290525318
-232.85001 6646.6401 14474.04 4290525318
-227.71001 6645.5 14473 4290525318
-222.61 6645.6699 14473 4290525318
-218.75 6644.4302 14471.86 4290525318
-213.12 6648.0801 14470.27 4290525318
-208.16 6652.77 14478.31 4290525318
-426.95001 6715.3301 14612.77 4290525318
-421.19 6716.25 14615.81 4290525318
-412.01001 6724.6201 14629.07 4290525318
-407.57999 6726.2998 14628.42 4290525318
-402.23999 6723.4302 14621.52 4290525318
-395.84 6713.6899 14595.9 4290525318
-390.45999 6709.9702 14592.69 4290525318
-385.73001 6706.3599 14586.11 4290525318
-380.81 6699.3701 14577.67 4290525318
-375.5 6696.4902 14570.77 4290525318
-369.63 6695.1899 14558.08 4290525318
-365.10999 6695.0801 14548.12 4290525318
-360.48001 6692.7002 14544.26 4290525318
-355.89001 6690.9902 14541.86 4290525318
-349.95999 6688.3599 14528.13 4290525318
-344.79001 6687.96 14526.68 4290525318
-339.81 6678.52 14529.48 4290525318
-335.62 6671.7002 14514.22 4290525318
-331.34 6675.8301 14520.9 4290525318
-325.20999 6681.8999 14511.42 4290525318
-320.76001 6682.7798 14512.87 4290525318
-316.03 6677.6602 14508.62 4290525318
-312.09 6675.7798 14507.81 4290525318
-306.67001 6669.4502 14500.82 4290525318
-301.51001 6668.8501 14504.5 4290525318
-296.78 6677.54 14497.3 4290525318
-292.79001 6674.54 14490.4 4290525318
-287.87 6664.4199 14491.74 4290525318
-282.47 6673.0498 14486.22 4290525318
-263.41 6661.02 14480.34 4290525318
-257.70999 6662.54 14483.15 4290525318
-243.74001 6665.23 14478.74 4290525318
-238.53 6662.7202 14478.33 4290525318
-233.37 6661.5098 14478.97 4290525318
-228.13 6657.77 14472.3 4290525318
-223.14999 6661.8599 14478.97 4290525318
-213.56 6661.6899 14472.48 4290525318
-432.63 6733.1802 14624.54 4290525318
-427.29999 6730.96 14619 4290525318
-421.92999 6728.0298 14613.79 4290525318
-417.29999 6736.8101 14626.62 4290525318
-408.29999 6738.0498 14626.3 4290525318
-395.78 6723.6499 14588.01 4290525318
-390.95001 6718.54 14583.67 4290525318
-386.10999 6713 14572.92 4290525318
-381.23001 6706.6602 14565.94 4290525318
-376.01001 6705.6499 14563.13 4290525318
-370.45001 6709.9199 14547.86 4290525318
-365.07999 6706.1899 14544.66 4290525318
-360.98001 6701.8901 14536.72 4290525318
-355.76999 6700.8701 14533.9 4290525318
-350.73999 6703.23 14532.94 4290525318
-345.26999 6697.1299 14519.14 4290525318
-340.28 6687.7002 14521.95 4290525318
-336.47 6688.52 14523.31 4290525318
-331.95001 6688.1401 14520.17 4290525318
-325.66 6691.0601 14503.88 4290525318
-316.57999 6689.3398 14506.53 4290525318
-312.54999 6685.5698 14501.64 4290525318
-307.14999 6679.8599 14496.01 4290525318
-292.79999 6689.4102 14495.21 4290525318
-277.44 6675.3501 14485.25 4290525318
-263.88 6672.7402 14476.58 4290525318
-258.16 6674.2002 14481.08 4290525318
-253.28 6680.6899 14476.52 4290525318
-244.14 6676.2598 14475.31 4290525318
-238.24001 6672.4702 14472.08 4290525318
-437.57999 6739.6699 14607.96 4290525318
-428.37 6747.8501 14628.04 4290525318
-417.06 6743.5298 14613.5 4290525318
-412.73001 6746.9902 14620.4 4290525318
-407.98001 6743.4702 14610.37 4290525318
-402.39001 6736.79 14595.21 4290525318
-396.28 6732.1899 14578.99 4290525318
-391.34 6725.1899 14570.57 4290525318
-386.75 6724.1299 14569.53 4290525318
-381.70999 6715.1802 14556.93 4290525318
-376.53 6714.8501 14555.57 4290525318
-370.88 6717.8101 14537.49 4290525318
-365.57999 6715.4399 14535.42 4290525318
-361.60001 6713.5801 14534.61 4290525318
-356.29001 6710.6699 14527.71 4290525318
-351.28 6713.6602 14528.11 4290525318
-345.94 6710.1099 14519.85 4290525318
-340.84 6698.75 14518.49 4290525318
-336.95999 6698.3198 14517.13 4290525318
-331.66 6695.4199 14508.46 4290525318
-321.73001 6703.0098 14500.1 4290525318
-317.13 6701.0498 14504.53 4290525318
-313.04001 6695.98 14496.82 4290525318
-307.67999 6691.5298 14493.92 4290525318
-302.37 6687.79 14490.8 4290525318
-297.29999 6689.2798 14493.53 4290525318
-263.79999 6687.02 14480.13 4290525318
-248.53999 6691.2202 14473.39 4290525318
-244.59 6688.5898 14474.67 4290525318
-238.73 6686.1001 14474.27 4290525318
-443.04999 6753.79 14608 4290525318
-434.35001 6759.9702 14625.57 4290525318
-423.32001 6760.6001 14627.25 4290525318
-417.82999 6755.9502 14612.81 4290525318
-408.23001 6747.6499 14590.03 4290525318
-402.82001 6744.04 14583.36 4290525318
-396.78 6740.7202 14569.97 4290525318
-391.29999 6735.6899 14565.72 4290525318
-387.17001 6731.3501 14557.7 4290525318
-382.34 6726.3301 14551.77 4290525318
-371.45999 6728.2402 14532.65 4290525318
-366.26001 6727.7598 14534.66 4290525318
-362.14001 6723.4502 14526.73 4290525318
-356.91 6722.3999 14525.69 4290525318
-351.79001 6723.46 14521.91 4290525318
-346.57001 6722.4702 14519.19 4290525318
-341.41 6709.7998 14515.03 4290525318
-336.84 6708.7998 14510.53 4290525318
-332.34 6709.02 14510.53 4290525318
-326.95999 6717.7002 14504.98 4290525318
-317.51001 6708.9102 14494.17 4290525318
-313.54999 6707.04 14493.35 4290525318
-308.28 6704.5601 14492.96 4290525318
-297.76001 6699.6899 14488.71 4290525318
-293.79999 6712.1602 14489.74 4290525318
-283.39001 6710.04 14484.21 4290525318
-264.23001 6698.0498 14476.67 4290525318
-259.01999 6696.2998 14474.27 4290525318
-245.02 6700.2998 14472.66 4290525318
-430.19 6776.5498 14633.12 4290525318
-423.70001 6766.6001 14612.67 4290525318
-403.37 6753.25 14575.78 4290525318
-397.35999 6750.5498 14563.75 4290525318
-391.87 6745.5098 14559.5 4290525318
-387.88 6743.7998 14555.33 4290525318
-382.89999 6736.1401 14545.56 4290525318
-376.88 6732.5801 14538.99 4290525318
-372.10999 6739.98 14530.61 4290525318
-366.57999 6733.73 14520.2 4290525318
-362.01999 6733.2798 14520.52 4290525318
-351.59 6731.98 14512.89 4290525318
-341.39001 6722.1899 14514.37 4290525318
-332.89001 6720.1401 14505.37 4290525318
-327.45999 6728.1201 14500.14 4290525318
-322.89001 6727.0698 14497.42 4290525318
-318.17999 6723.2002 14495.9 4290525318
-313.51999 6720.1099 14492.37 4290525318
-308.12 6715 14488.13 4290525318
-303.48999 6712.4902 14487.74 4290525318
-278.31 6711.77 14480.2 4290525318
-273.75 6710.6602 14477.38 4290525318
-254.09 6719 14475.53 4290525318
-239.58 6710.1499 14469.84 4290525318
-455.70999 6777.5801 14594.93 4290525318
-450.32999 6775.1499 14594.46 4290525318
-440.22 6790.4102 14634.89 4290525318
-436.03 6786.0898 14626.88 4290525318
-430.48999 6781.29 14615.81 4290525318
-424.16 6773.8901 14600.9 4290525318
-418.73001 6770.54 14587.5 4290525318
-413.75 6763.6802 14573.96 4290525318
-409.29999 6765.3599 14573.31 4290525318
-403.84 6761.1699 14563.6 4290525318
-397.82999 6758.4399 14553.34 4290525318
-392.26001 6752.1499 14544.62 4290525318
-387.57999 6749.7798 14540.77 4290525318
-382.67001 6743.4199 14533.81 4290525318
-377.5 6743.6499 14535.5 4290525318
-367.32001 6747.3599 14522.24 4290525318
-362.57999 6743.71 14515.67 4290525318
-352.17001 6743.0801 14509.49 4290525318
-347.07001 6744.6699 14510.53 4290525318
-341.89001 6732 14506.39 4290525318
-333.37 6729.9199 14499.17 4290525318
-327.97 6738.5298 14495.29 4290525318
-322.82999 6739.4102 14496.66 4290525318
-318.06 6734.29 14492.41 4290525318
-274.23001 6722.3599 14475.36 4290525318
-269.72 6722.5601 14473.59 4290525318
-265.10001 6720.1499 14469.83 4290525318
-254.44 6728.1299 14467.97 4290525318
-249.27 6728.27 14469.65 4290525318
-245.37 6727.52 14476.79 4290525318
-462.06 6803.8701 14622.89 4290525318
-456.54001 6799.6401 14614.88 4290525318
-451.82001 6807.5498 14636.61 4290525318
-446.60001 6807.8101 14640.07 4290525318
-440.78 6798.9702 14625.83 4290525318
-436.62 6795.3198 14619.26 4290525318
-430.82999 6786.6299 14599.87 4290525318
-424.81 6784.3599 14596.02 4290525318
-419.14001 6777.1299 14574.29 4290525318
-414.28 6772.27 14563.23 4290525318
-409.73999 6772.6099 14561.54 4290525318
-404.39001 6770.3501 14556.01 4290525318
-398.39999 6768.2598 14545.34 4290525318
-393.01001 6765.1602 14545.28 4290525318
-388.25 6761.52 14538.71 4290525318
-383.41 6756.4199 14534.48 4290525318
-378.01001 6752.8398 14526.14 4290525318
-372.57001 6760.2598 14517.76 4290525318
-367.85999 6757.1499 14516.01 4290525318
-363.10001 6753.4502 14509.36 4290525318
-358.67001 6755.6299 14513.53 4290525318
-352.89001 6756.7598 14509.83 4290525318
-347.67001 6756.3599 14508.39 4290525318
-342.51001 6744.3599 14505.71 4290525318
-338.47 6741.3501 14498.82 4290525318
-333.95001 6741.6401 14497.13 4290525318
-318.45999 6742.7598 14483.39 4290525318
-314.67001 6744.7998 14491.02 4290525318
-284.82001 6743.8799 14473.53 4290525318
-259.92999 6736.5498 14477.41 4290525318
-465.72 6799.9302 14609.49 4290525318
-462.51001 6810.4702 14609.65 4290525318
-458.19 6824.3198 14640.41 4290525318
-452.91 6823.8901 14644.2 4290525318
-446.98999 6813.79 14625.47 4290525318
-441.04001 6803.0698 14605.37 4290525318
-436.88 6799.3501 14600.5 4290525318
-430.67999 6794.5698 14589.44 4290525318
-425.39001 6793.5698 14588.41 4290525318
-419.70999 6786.3198 14566.68 4290525318
-415.07999 6785.29 14563.87 4290525318
-410.37 6783.0601 14556.66 4290525318
-404.78 6776.9102 14542.79 4290525318
-398.98001 6778.0801 14539.1 4290525318
-393.42999 6772.3901 14533.51 4290525318
-388.73999 6770.0098 14529.67 4290525318
-384.04001 6767.4902 14530.97 4290525318
-378.76999 6766.4702 14528.17 4290525318
-367.81 6768.25 14512.5 4290525318
-359.26001 6766.7002 14510.01 4290525318
-353.35999 6765.8701 14502.16 4290525318
-348.07001 6764.1899 14497.99 4290525318
-339.10001 6753.7002 14498.13 4290525318
-334.53 6753.3101 14495 4290525318
-324.01999 6764.1802 14493.59 4290525318
-319.04001 6755.1001 14482.7 4290525318
-315.09 6753.8999 14483.35 4290525318
-309.82001 6752.0298 14486.1 4290525318
-304.45999 6748.2402 14482.9 4290525318
-285.45001 6758.7998 14478.37 4290525318
-279.79001 6747.4399 14475.28 4290525318
-274.57999 6747.02 14473.92 4290525318
-270.66 6745.9902 14467.74 4290525318
-266.07999 6744.8398 14466.71 4290525318
-260.32999 6746.9502 14472.56 4290525318
-472.06 6815.77 14618.68 4290525318
-466.39001 6809.73 14603.14 4290525318
-463.84 6830 14624.12 4290525318
-458.85999 6834.1802 14634.13 4290525318
-453.29999 6829.8599 14629.59 4290525318
-447.51001 6821.71 14615.03 4290525318
-441.67999 6812.9102 14599.11 4290525318
-436.69 6806.6699 14586.93 4290525318
-431.22 6803.0898 14580.38 4290525318
-425.60001 6797 14566.61 4290525318
-414.89999 6793.2002 14553.45 4290525318
-410.16 6790.3501 14543.11 4290525318
-405.60001 6790.6001 14544.88 4290525318
-398.82999 6786.6099 14530.04 4290525318
-389.37 6781.0801 14526.15 4290525318
-384.67001 6778.6099 14525.77 4290525318
-373.97 6785.6201 14517.7 4290525318
-368.66 6783.8999 14516.99 4290525318
-364.42999 6778.1899 14507.95 4290525318
-359.20001 6777.8301 14506.59 4290525318
-353.97 6777.5898 14500.09 4290525318
-348.73999 6777.1802 14498.64 4290525318
-343.54001 6764.5498 14494.62 4290525318
-339.70999 6766.0098 14497.34 4290525318
-334.56 6766.9702 14497.02 4290525318
-328.97 6772.4199 14484.55 4290525318
-324.45999 6773.27 14485.91 4290525318
-319.64999 6768.0801 14483.36 4290525318
-315.73001 6767.5498 14485.46 4290525318
-310.20001 6760.4902 14477.07 4290525318
-299.82999 6760.8198 14482.21 4290525318
-295.73999 6771.3599 14479.03 4290525318
-291.34 6759.9502 14475.95 4290525318
-285.89001 6769.2002 14473.5 4290525318
-280.25 6758.52 14471.87 4290525318
-275.19 6762 14477.07 4290525318
-271.28 6761.54 14473.94 4290525318
-478.53 6833.1499 14623.83 4290525318
-472.82999 6826.8799 14615.13 4290525318
-467.78 6829.8901 14618.96 4290525318
-464.76999 6843.71 14626.07 4290525318
-459.60999 6845.3799 14628.88 4290525318
-453.53 6833.2402 14609.45 4290525318
-447.10999 6825.75 14596.26 4290525318
-442.14999 6820.1201 14587.22 4290525318
-437.03 6811.9702 14570.98 4290525318
-431.73001 6811.04 14568.26 4290525318
-425.48001 6805.54 14557.54 4290525318
-420.64999 6812.1899 14552.92 4290525318
-415.84 6808.5698 14544.59 4290525318
-410.94 6803.3701 14543.74 4290525318
-405.53 6800.3999 14538.54 4290525318
-399.59 6799.6201 14530.68 4290525318
-394.47 6801.4199 14526.66 4290525318
-385.29999 6789.6699 14522.24 4290525318
-374.57999 6796.6802 14514.17 4290525318
-369.07999 6791.73 14506.57 4290525318
-365.03 6789.2998 14502.74 4290525318
-359.70999 6787.5601 14500.25 4290525318
-354.51999 6788.02 14495.2 4290525318
-349.23999 6786.9702 14492.39 4290525318
-344.10001 6775.5898 14491.11 4290525318
-340.29999 6777.79 14493.59 4290525318
-335.04001 6776.7998 14489.1 4290525318
-329.51001 6783.4502 14481.03 4290525318
-320.17999 6779.1602 14479.94 4290525318
-310.95001 6776.75 14482.92 4290525318
-305.45001 6770.3701 14474.21 4290525318
-300.82999 6783.5298 14476.54 4290525318
-296.25 6783.0898 14475.18 4290525318
-291.87 6772.2998 14475.24 4290525318
-285.79001 6782.21 14474.15 4290525318
-275.67001 6773.6699 14474.92 4290525318
-484.04999 6836.7598 14606.83 4290525318
-479.54001 6847.5298 14627.23 4290525318
-473.48001 6845.8398 14628.22 4290525318
-469.01999 6848.1299 14630.6 4290525318
-459.82999 6848.7598 14608.73 4290525318
-453.79001 6837.23 14590.68 4290525318
-447.45999 6831.0498 14580.29 4290525318
-442.32999 6832.9902 14572.8 4290525318
-437.70001 6822.4302 14566.07 4290525318
-432.35001 6820.8501 14561.99 4290525318
-426.01001 6814.04 14548.47 4290525318
-420.91 6816.3901 14549.17 4290525318
-416.17999 6814.0898 14543.65 4290525318
-411.5 6812.5298 14536.12 4290525318
-406.14999 6810.8398 14533.64 4290525318
-400.17001 6809.4102 14524.42 4290525318
-394.82001 6807.5698 14527.09 4290525318
-390.92999 6808.1201 14515.11 4290525318
-385.73999 6797.5098 14511.83 4290525318
-380.48999 6797.1099 14512.15 4290525318
-374.98001 6803.9302 14500.71 4290525318
-369.64999 6802.1401 14501.68 4290525318
-365.66 6800.98 14500.56 4290525318
-360.39999 6800.5601 14500.89 4290525318
-349.78 6797.4302 14485.82 4290525318
-344.17999 6789.9399 14492.78 4290525318
-340.14001 6787.5498 14487.26 4290525318
-330.17001 6797.1001 14483.01 4290525318
-325.48001 6794.7202 14477.49 4290525318
-320.85001 6793.48 14481.61 4290525318
-316.88 6792.27 14482.26 4290525318
-311.45999 6787.79 14479.4 4290525318
-306.10001 6784.6699 14477.66 4290525318
-301.35001 6795.2402 14474.46 4290525318
-296.76999 6794.7998 14473.1 4290525318
-292.38 6784.0098 14473.17 4290525318
-490.07999 6856.6201 14622.62 4290525318
-484.98001 6849.8198 14607.42 4290525318
-474.79001 6864.73 14641.2 4290525318
-470.06 6863.23 14633.66 4290525318
-465.23001 6860.2002 14606.5 4290525318
-460.06 6852.1001 14588.59 4290525318
-454.23001 6843.8501 14575.73 4290525318
-448.19 6842.21 14575.04 4290525318
-442.51001 6835.9102 14566.34 4290525318
-438.57001 6835.8599 14553 4290525318
-433.12 6832.9702 14546.12 4290525318
-426.82999 6827.0698 14549.08 4290525318
-421.28 6822.3501 14532.89 4290525318
-416.82001 6824.52 14538.74 4290525318
-412.25 6824.9199 14535.37 4290525318
-406.78 6821.3198 14527.04 4290525318
-400.67001 6817.8799 14515.35 4290525318
-395.32001 6816.1001 14516.33 4290525318
-390.63 6814.3901 14513.94 4290525318
-386.44 6809.8799 14511.09 4290525318
-380.45999 6808.2598 14506.93 4290525318
-375.76999 6818.2202 14504.03 4290525318
-370.28 6813.8301 14499.49 4290525318
-365.5 6810.1499 14492.94 4290525318
-360.89001 6809.7002 14493.27 4290525318
-355.13 6812.1499 14490.6 4290525318
-349.89999 6812.4199 14490.6 4290525318
-340.85999 6801.8599 14490.69 4290525318
-336.17001 6799.5601 14483.49 4290525318
-330.70999 6808.1699 14479.57 4290525318
-326.20001 6809.6699 14482.28 4290525318
-320.78 6805.8701 14480.87 4290525318
-316.70999 6802.71 14477.37 4290525318
-311.34 6799.5298 14477.32 4290525318
-306.03 6797.6899 14478.29 4290525318
-297.25 6805.8501 14469.56 4290525318
-292.94 6797 14473.81 4290525318
-500.10001 6867 14622.5 4290525318
-494.79001 6857.6001 14601.78 4290525318
-491.10999 6870.98 14625.91 4290525318
-486.41 6870.0298 14623.19 4290525318
-481.32999 6882.5801 14632.61 4290525318
-475.39001 6873.3398 14630.4 4290525318
-470.07001 6863.3501 14606.64 4290525318
-465.59 6865.5498 14588.83 4290525318
-460.72 6861.9199 14582.29 4290525318
-454.35999 6855.6699 14573.6 4290525318
-448.79001 6851.3901 14567.39 4290525318
-443.07001 6844.4502 14557.34 4290525318
-438.84 6840.0898 14549.35 4290525318
-433.34 6836.5498 14541.11 4290525318
-427.75 6841.7998 14538.81 4290525318
-422.13 6836.0498 14534.94 4290525318
-417.34 6833.0601 14527.97 4290525318
-412.64001 6831.4302 14522.13 4290525318
-407.39999 6831.75 14522.13 4290525318
-401.39999 6830.3101 14512.91 4290525318
-395.95999 6827.1499 14512.78 4290525318
-391.26001 6825.4502 14510.39 4290525318
-386.48999 6822.29 14510.34 4290525318
-381.14999 6820.6299 14506.18 4290525318
-375.76001 6829.9902 14501.92 4290525318
-370.95999 6826.2002 14498.74 4290525318
-361.57999 6822.7598 14492.2 4290525318
-355.70999 6823.1899 14487.05 4290525318
-341.38 6812.27 14485.79 4290525318
-336.87 6813.8301 14486.82 4290525318
-331.34 6821.1699 14480.18 4290525318
-326.01001 6819.52 14474.33 4290525318
-321.26999 6816.2598 14475.97 4290525318
-317.26001 6814.3799 14475.18 4290525318
-311.85001 6810.5698 14473.77 4290525318
-306.44 6806.7598 14470.59 4290525318
-506.32001 6879.6699 14599.4 4290525318
-500.91 6878.1299 14618.89 4290525318
-495.95999 6873.9199 14609.22 4290525318
-470.64999 6871.8701 14597.53 4290525318
-466.12 6873.4102 14578.37 4290525318
-460.59 6869.8301 14571.83 4290525318
-455.26001 6869.3599 14575.53 4290525318
-449.26001 6858.5601 14555.48 4290525318
-443.73999 6854.9102 14550.63 4290525318
-439.59 6851.8599 14545.44 4290525318
-434.20999 6850.2202 14543.06 4290525318
-428.01001 6846.04 14533.38 4290525318
-422.76999 6846.48 14530.01 4290525318
-418.17999 6846.7598 14530.01 4290525318
-413.26999 6841.9102 14515.52 4290525318
-407.98001 6841.5298 14515.85 4290525318
-402.01001 6840.73 14507.99 4290525318
-396.70999 6840.1699 14513.37 4290525318
-391.82001 6835.2202 14504.11 4290525318
-387.19 6834.6201 14509.5 4290525318
-381.76999 6831.6802 14502.63 4290525318
-376.26001 6839.0801 14494.19 4290525318
-371.51999 6836.6602 14492.14 4290525318
-366.82999 6834.8799 14491.44 4290525318
-362.20001 6834.4399 14489.99 4290525318
-356.45001 6837.52 14490.45 4290525318
-345.89001 6823.7598 14483.59 4290525318
-341.89999 6822.6802 14480.88 4290525318
-337.26001 6821.6299 14476.4 4290525318
-326.54001 6830.5498 14470.78 4290525318
-321.85999 6828.5801 14475.13 4290525318
-317.82999 6826.7402 14474.43 4290525318
-312.75 6830.3901 14474.47 4290525318
-302.57001 6822.5698 14476.72 4290525318
-298.35999 6831.2002 14469.42 4290525318
-293.35001 6821.6899 14472.24 4290525318
-501.72 6889.2598 14615.29 4290525318
-481.82001 6889.5698 14605.74 4290525318
-476.03 6882.6099 14595.61 4290525318
-470.70001 6882.1299 14577.54 4290525318
-466.87 6884.5 14574.77 4290525318
-460.98001 6875.71 14557.2 4290525318
-455.57001 6873.9702 14558.19 4290525318
-449.98999 6869.6802 14551.98 4290525318
-444.51001 6866.6699 14548.49 4290525318
-439.69 6863.6602 14543.3 4290525318
-434.09 6858.7402 14533.96 4290525318
-428.82999 6859.0698 14533.96 4290525318
-423.41 6856.8999 14525.07 4290525318
-418.60999 6853.8999 14518.11 4290525318
-414.14001 6856.21 14518.81 4290525318
-408.79999 6855.1899 14517.78 4290525318
-402 6851.8198 14504.41 4290525318
-397.32001 6850.5898 14508.44 4290525318
-392.45999 6846.27 14500.54 4290525318
-387.64001 6842.4902 14497.37 4290525318
-382.35001 6842.1001 14497.7 4290525318
-376.94 6851.4399 14493.42 4290525318
-371.54001 6849.0601 14491.37 4290525318
-367.45999 6846.6099 14487.54 4290525318
-362.75 6844.8398 14485.07 4290525318
-356.95999 6847.23 14484.08 4290525318
-351.76999 6848.8301 14486.88 4290525318
-342.64999 6837.6602 14483.86 4290525318
-338.10001 6838.5698 14485.31 4290525318
-331.85001 6845.29 14475.53 4290525318
-327.29001 6846.1602 14476.88 4290525318
-312.98001 6835.2402 14472.18 4290525318
-307.70001 6834.7798 14474.28 4290525318
-303.03 6832.9702 14471.8 4290525318
-298.23999 6843.54 14468.57 4290525318
-488.59 6900.8501 14606.94 4290525318
-482.41 6898.0801 14596.61 4290525318
-476.66 6891.7998 14587.93 4290525318
-470.89999 6885.0498 14571.06 4290525318
-467.32001 6891.0698 14561.58 4290525318
-461.76999 6887.4902 14553.27 4290525318
-456.13 6882.4502 14549.08 4290525318
-445.17999 6877.1001 14543.54 4290525318
-440.31 6873.46 14537 4290525318
-435 6873.1099 14535.55 4290525318
-429.44 6868.8501 14527.66 4290525318
-423.32001 6866.04 14517.33 4290525318
-418.54999 6863.7202 14511.82 4290525318
-414.14999 6867.3501 14515.31 4290525318
-409.42001 6865.6099 14512.84 4290525318
-402.76999 6864.8301 14504.99 4290525318
-397.85001 6859.7202 14500.79 4290525318
-393.20999 6859.3398 14499.44 4290525318
-388.72 6861.6899 14498.45 4290525318
-382.92999 6852.5098 14492.76 4290525318
-377.62 6863.8701 14490.96 4290525318
-372.03 6858.1401 14483.63 4290525318
-368.16 6859.6201 14488.12 4290525318
-363 6861.8198 14493.96 4290525318
-338.26001 6855.1802 14479.11 4290525318
-332.42001 6856.9702 14473.31 4290525318
-327.88 6858.52 14476.11 4290525318
-323.04999 6853.9902 14473.27 4290525318
-318.92999 6850.1802 14468.42 4290525318
-308.23001 6846.46 14472.07 4290525318
-518.97998 6915.7998 14612.33 4290525318
-488.44 6908.1401 14593.32 4290525318
-482.95999 6905.9399 14586.13 4290525318
-477.41 6902.6099 14569.29 4290525318
-471.60999 6895.5498 14564.41 4290525318
-467.94 6900.1802 14553.81 4290525318
-462.47 6897.9302 14548.3 4290525318
-456.91 6894.2202 14545.14 4290525318
-450.66 6889.9702 14538.94 4290525318
-445.10999 6886.25 14535.78 4290525318
-440.85999 6881.9199 14527.89 4290525318
-435.57999 6882.25 14527.89 4290525318
-429.47 6879.96 14524.06 4290525318
-424.20001 6880.3999 14520.69 4290525318
-419.42999 6878.0698 14515.18 4290525318
-414.76999 6877.77 14510.36 4290525318
-409.38 6876.1201 14506.21 4290525318
-403.34 6874.6001 14498.68 4290525318
-398.60001 6872.79 14499.67 4290525318
-393.84 6870.3901 14495.85 4290525318
-389.07001 6867.8901 14497.16 4290525318
-383.92999 6870.4199 14489.35 4290525318
-378.26999 6875.5601 14488.72 4290525318
-372.70001 6870.5 14482.85 4290525318
-368.75 6870.6699 14484.53 4290525318
-363.48001 6870.8999 14486.22 4290525318
-358.12 6869.4102 14475.32 4290525318
-353.01001 6872.9399 14482.19 4290525318
-347.73999 6860.2202 14478.16 4290525318
-343.85999 6861.75 14480.96 4290525318
-338.57001 6861.3799 14477.83 4290525318
-333.07999 6870.6699 14475.32 4290525318
-328.38 6868.9199 14471.17 4290525318
-323.64001 6866.3599 14472.49 4290525318
-314.14001 6860.6499 14470.31 4290525318
-489 6915.9902 14582.83 4290525318
-483.51001 6913.7998 14575.63 4290525318
-477.04999 6906.8999 14565.61 4290525318
-472.28 6905.3101 14557.99 4290525318
-468.03 6911.3599 14548.5 4290525318
-463.17001 6908.3599 14543.33 4290525318
-457.51999 6903.3701 14537.46 4290525318
-451.20999 6898.4199 14529.82 4290525318
-446 6899.98 14537.77 4290525318
-441.48001 6891.7002 14521.57 4290525318
-436.07001 6890.0601 14517.42 4290525318
-429.95999 6887.7798 14513.59 4290525318
-424.79999 6890.1802 14512.6 4290525318
-420.06 6888.48 14510.22 4290525318
-415.35999 6887.5 14503.96 4290525318
-410.04001 6887.1699 14502.61 4290525318
-404.17999 6888.96 14500.26 4290525318
-398.62 6884.52 14497.43 4290525318
-394.66 6884.6899 14499.11 4290525318
-389.66 6878.29 14492.21 4290525318
-384.23999 6875.9702 14486.7 4290525318
-373.34 6882.1899 14480.6 4290525318
-368.79001 6883.7202 14485.09 4290525318
-353.54999 6883.3301 14477.23 4290525318
-348.06 6879.4399 14479.22 4290525318
-344.13 6880.3301 14478.89 4290525318
-333.64999 6882.3501 14473.08 4290525318
-329.06 6883.21 14474.44 4290525318
-324.25 6879.3701 14473.05 4290525318
-320.20001 6877.52 14472.36 4290525318
-536.47998 6952.4502 14619.67 4290525318
-531.40997 6947.46 14612.03 4290525318
-525.81 6944.3701 14613.7 4290525318
-516.56 6936.9502 14605.71 4290525318
-511.72 6952.98 14616.87 4290525318
-504.57999 6937.77 14607.4 4290525318
-499.69 6934.8501 14600.53 4290525318
-494.57999 6928.73 14583.35 4290525318
-489.69 6925.7998 14576.48 4290525318
-484.20001 6923.6201 14567.51 4290525318
-477.82001 6918.04 14560.29 4290525318
-472.95001 6915.1099 14551.66 4290525318
-468.82999 6923.1299 14546.32 4290525318
-463.95999 6920.1299 14541.14 4290525318
-451.85001 6908.2002 14523.49 4290525318
-446.42001 6906.5098 14522.8 4290525318
-442.35999 6905.4302 14521.78 4290525318
-430.64999 6898.8398 14509.97 4290525318
-425.48999 6901.2402 14508.99 4290525318
-420.73999 6899.5898 14504.92 4290525318
-416.03 6898.5898 14500.44 4290525318
-410.78 6899.5498 14501.79 4290525318
-404.79001 6899.3701 14495.29 4290525318
-399.26001 6895.5698 14493.82 4290525318
-394.48001 6893.21 14490.09 4290525318
-390.25 6888.6899 14487.26 4290525318
-384.38 6890.3101 14489.96 4290525318
-379.14001 6891.4399 14482.81 4290525318
-378.92999 6899.6602 14485.66 4290525318
-369.45001 6896.0898 14484.28 4290525318
-364.72 6894.3599 14480.13 4290525318
-358.95001 6898.0898 14481.93 4290525318
-344.44 6886.48 14479.28 4290525318
-339.75 6885.4702 14474.89 4290525318
-324.17001 6891.77 14472.25 4290525318
-541.82001 6952.1001 14616.2 4290525318
-537.03003 6959.6201 14607.7 4290525318
-527.34998 6964.6802 14629.36 4290525318
-521.46002 6957.8101 14617.66 4290525318
-512.01001 6956.8799 14598.05 4290525318
-505.20001 6946.3101 14598.33 4290525318
-499.97 6938.79 14581.81 4290525318
-495.37 6939.8301 14579.7 4290525318
-490.20001 6932.9502 14564.54 4290525318
-478.26001 6924.5298 14547 4290525318
-473.85001 6928.1699 14552.17 4290525318
-469.48999 6932.9199 14539.97 4290525318
-464.48001 6927.9302 14530.65 4290525318
-458.14999 6922.9302 14524.7 4290525318
-452.75 6921.8901 14525.37 4290525318
-437.60001 6914.1699 14514.33 4290525318
-431.47 6911.9199 14508.82 4290525318
-426.09 6911 14502.66 4290525318
-421.20999 6907.3301 14494.36 4290525318
-416.85999 6912.3101 14500.64 4290525318
-411.32001 6908.6299 14494.02 4290525318
-405.44 6910.4199 14491.67 4290525318
-399.85999 6905.9702 14488.85 4290525318
-395.12 6904.2598 14486.47 4290525318
-390.37 6902.4399 14487.46 4290525318
-385 6901.3999 14486.44 4290525318
-379.60999 6912.0298 14484.84 4290525318
-370.04001 6907.1299 14480.67 4290525318
-365.34 6906.0898 14477.96 4290525318
-359.42001 6907.1499 14474.16 4290525318
-354.12 6907.4199 14474.16 4290525318
-345.01999 6898.21 14477.12 4290525318
-340.26999 6895.8599 14469.93 4290525318
-547.66998 6975.3599 14611.66 4290525318
-543.71002 6976.3198 14613.01 4290525318
-538.45001 6978.02 14617.5 4290525318
-528.29999 6977.1602 14628.48 4290525318
-522.48999 6971.5601 14619.49 4290525318
-518.13 6967.1401 14615 4290525318
-511.87 6964.1699 14584.49 4290525318
-505.87 6955.5 14588.83 4290525318
-500.67999 6948.5601 14575.36 4290525318
-495.60001 6943.0601 14559.54 4290525318
-490.98001 6944.0801 14560.98 4290525318
-484.67999 6939.96 14547.86 4290525318
-470.10999 6942.0098 14532.17 4290525318
-447.73001 6926.71 14511.47 4290525318
-443.70001 6926.2798 14511.8 4290525318
-432.28 6924.96 14509.34 4290525318
-426.85001 6923.4102 14501.82 4290525318
-422.13 6922.3501 14499.02 4290525318
-417.45001 6922.0698 14494.3 4290525318
-411.94 6919.0298 14489.04 4290525318
-400.51001 6917.0698 14485.31 4290525318
-395.85999 6917.29 14487 4290525318
-391.14001 6916.1201 14489.35 4290525318
-385.60999 6912.4502 14482.82 4290525318
-380.17999 6922.4302 14479.86 4290525318
-370.64001 6918.2202 14475.36 4290525318
-365.92001 6917.1299 14474.33 4290525318
-360.20001 6922.1602 14478.84 4290525318
-354.59 6916.52 14466.48 4290525318
-341.04001 6911.5098 14474.19 4290525318
-552.15002 6972.4199 14604.47 4290525318
-548.84998 6990.4502 14616.27 4290525318
-539.87 6996.3901 14628.96 4290525318
-534.14001 6992.0698 14624.47 4290525318
-528.52002 6989.04 14624.46 4290525318
-523.03003 6978.77 14607.61 4290525318
-518.46997 6971.6699 14597.52 4290525318
-512.40002 6971.3501 14572.61 4290525318
-506.39001 6962.6802 14576.96 4290525318
-500.72 6958.46 14567.31 4290525318
-495.63 6952.9502 14551.49 4290525318
-491.48999 6951.25 14547.34 4290525318
-485.41 6950.3901 14542.86 4290525318
-479.79999 6946.73 14539.8 4290525318
-474.39001 6945.8599 14533.63 4290525318
-470.76999 6951.79 14525.81 4290525318
-465.35001 6950.8101 14523.02 4290525318
-459.73999 6947.0898 14521.65 4290525318
-454.20001 6944.0601 14518.17 4290525318
-448.51999 6939.0601 14510.54 4290525318
-443.73999 6937.3799 14508.16 4290525318
-438.25 6935.0801 14502.66 4290525318
-432.92999 6935.3701 14504.35 4290525318
-427.45001 6933.1602 14495.47 4290525318
-422.67999 6931.46 14491.33 4290525318
-418.19 6934.4199 14493.37 4290525318
-412.87 6934.73 14493.37 4290525318
-406.07001 6932.5898 14484.5 4290525318
-396.5 6928.3799 14481.68 4290525318
-391.64999 6925.2202 14481.66 4290525318
-386.38 6926.1699 14483.01 4290525318
-380.89999 6935.5098 14478.69 4290525318
-375.29001 6930.4302 14472.83 4290525318
-366.57999 6929.5098 14473.5 4290525318
-360.64001 6930.5601 14469.7 4290525318
-355.48999 6934.1699 14474.87 4290525318
-553.76001 6992.7598 14620.08 4290525318
-550.28998 7008.8301 14627.72 4290525318
-541.23999 7014.1299 14639.05 4290525318
-534.73999 6999.9199 14613.93 4290525318
-528.96002 6994.9102 14609.77 4290525318
-523.52002 6985.27 14594.28 4290525318
-519.06 6979.5601 14585.31 4290525318
-513.12 6981.1099 14566.14 4290525318
-506.91 6969.8101 14565 4290525318
-492.32001 6963.02 14545.12 4290525318
-486.14001 6960.8198 14537.84 4290525318
-480.51999 6957.1602 14534.79 4290525318
-475.19 6957.5801 14531.33 4290525318
-471.51999 6962.8501 14522.15 4290525318
-466.09 6961.8701 14519.36 4290525318
-460.35001 6956.21 14512.16 4290525318
-449.20001 6949.4702 14505.53 4290525318
-444.48999 6949.0801 14505.87 4290525318
-439.04001 6947.48 14501.81 4290525318
-433.62 6946.4199 14500.7 4290525318
-427.59 6946.2402 14494.2 4290525318
-422.89001 6945.8301 14494.53 4290525318
-418.07001 6943.5698 14485.66 4290525318
-413.42001 6943.8501 14485.66 4290525318
-406.91 6946.9199 14487.71 4290525318
-397.32001 6942.75 14484.98 4290525318
-392.39001 6938.25 14482.17 4290525318
-387.10999 6939.2002 14483.52 4290525318
-381.60999 6948.54 14479.19 4290525318
-376.13 6946.1001 14478.83 4290525318
-366.60001 6942.5698 14474 4290525318
-361.38 6944.9302 14471.23 4290525318
-566.28003 7014.1001 14614.37 4290525318
-559.70001 7008.0098 14600.68 4290525318
-541.23999 7014.0698 14612.01 4290525318
-535.23999 7006.4702 14598.9 4290525318
-529.26001 6998.77 14590.93 4290525318
-523.90997 6990.5098 14576.56 4290525318
-519.69 6988.02 14576.12 4290525318
-513.84003 6990.8999 14559.75 4290525318
-507.62 6979.6099 14558.62 4290525318
-502.07999 6977.3599 14553.12 4290525318
-497.20999 6975.1099 14544.15 4290525318
-492.44 6974.1499 14541.45 4290525318
-487.04999 6973.9302 14536.63 4290525318
-472.35999 6975.3101 14519.59 4290525318
-466.87 6973.6299 14517.13 4290525318
-461.20999 6969.2598 14512.64 4290525318
-454.89001 6964.9902 14506.46 4290525318
-449.25 6960.6201 14501.96 4290525318
-445.07001 6958.23 14496.47 4290525318
-439.89999 6961.1699 14503.65 4290525318
-433.60001 6956.8701 14495.69 4290525318
-428.19 6955.9902 14487.84 4290525318
-423.60999 6957.6201 14490.63 4290525318
-418.94 6957.9102 14488.86 4290525318
-413.56 6957.5801 14487.51 4290525318
-407.56 6958.0098 14482.36 4290525318
-402.10999 6956.25 14485.14 4290525318
-393.04999 6949.9399 14479.87 4290525318
-382.29001 6960.9199 14478.32 4290525318
-376.66 6955.7998 14472.39 4290525318
-367.29001 6955.6001 14472.72 4290525318
-362.13 6959.3101 14474.51 4290525318
-571.78003 7023.4902 14609.65 4290525318
-567.54999 7029.8999 14618.61 4290525318
-540.76001 7016.6699 14590.46 4290525318
-535.78998 7013.6401 14587 4290525318
-529.54999 7002.6499 14572.19 4290525318
-524.78998 7002.2598 14574.21 4290525318
-520.52002 6999.1699 14572.52 4290525318
-514.46002 6999.3501 14550.56 4290525318
