# .PCD v0.7 - Point Cloud Data file format
VERSION 0.7
FIELDS x y z rgb
SIZE 4 4 4 4
TYPE F F F U
COUNT 1 1 1 1
WIDTH 95
HEIGHT 1
VIEWPOINT 0 0 0 1 0 0 0
POINTS 95
DATA ascii
-253.89999 6906.8999 14200.44 4285346620
-259.10001 6921.5898 14203.31 4285346620
-254.42 6921.0801 14203.64 4285346620
-244.53999 6923.48 14206.09 4285346620
-275.51001 6933.2002 14202.46 4285346620
-264.56 6925.48 14203.09 4285346620
-255.03999 6938 14212.41 4285346620
-250.88 6933.3999 14209.6 4285346620
-244.75 6929.5498 14206.47 4285346620
-275.78 6939.9702 14204.26 4285346620
-271.41 6947.6001 14207.41 4285346620
-265.04999 6938.3599 14203.58 4285346620
-260.04001 6946.7202 14201.26 4285346620
-251.47 6949.6699 14217.01 4285346620
-285.82001 6957.2402 14202.41 4285346620
-276.29001 6952.8799 14203.07 4285346620
-271.70001 6955.0601 14208.88 4285346620
-260.72 6964.9702 14212.69 4285346620
-286.09 6964.02 14204.2 4285346620
-272 6962.5801 14198.39 4285346620
-266.14001 6966.8398 14208.33 4285346620
-286.62 6976.9302 14204.66 4285346620
-277.37 6979.98 14206.68 4285346620
-272.70999 6980.8501 14209.8 4285346620
-266.73999 6982.4399 14214.26 4285346620
-298.48999 6988 14204.09 4285346620
-293 7001.1201 14207.9 4285346620
-287.23999 6991.8301 14207.46 4285346620
-278.01999 6996.29 14214.03 4285346620
-303.20999 7004.0898 14201.08 4285346620
-299.07001 7001.5801 14204.2 4285346620
-292.81 7012.73 14205.63 4285346620
-287.76999 7004.73 14207.89 4285346620
-299.64999 7015.1499 14205.97 4285346620
-293.51999 7029.6802 14212.52 4285346620
-288.32999 7018.3501 14209.75 4285346620
-319 7025.8799 14200.24 4285346620
-313.54999 7024.75 14202.59 4285346620
-304.70999 7038.77 14206.12 4285346620
-300.26001 7029.3901 14209.07 4285346620
-288.26001 7033.3198 14214.29 4285346620
-334.38 7051.0298 14207.85 4285346620
-325.17001 7042.6001 14201.98 4285346620
-319.67999 7040.8301 14204.76 4285346620
-314.16 7038.3198 14204.34 4285346620
-305.39001 7054.3901 14211.97 4285346620
-300.14001 7042.3701 14209.56 4285346620
-330.06 7060.0898 14208.59 4285346620
-320.26999 7053.7598 14203.47 4285346620
-314.73001 7051.25 14203.06 4285346620
-306.07001 7070.0298 14217.81 4285346620
-300.76999 7057.29 14213.98 4285346620
-335.41 7072.8101 14200.46 4285346620
-330.47 7068.9302 14200.72 4285346620
-320.91 7068.0098 14206.54 4285346620
-310.60999 7080.7402 14212.38 4285346620
-301.5 7074.3301 14220.91 4285346620
-340.91 7088.23 14206.28 4285346620
-336.14999 7088.4502 14206.28 4285346620
-331.14001 7083.2402 14202.18 4285346620
-327.12 7084.79 14208.32 4285346620
-321.44 7079.6001 14204.22 4285346620
-316.10001 7081.8501 14213.38 4285346620
-306.60001 7082.2598 14215.07 4285346620
-352.42999 7086.9702 14201.48 4285346620
-347.16 7090.6401 14206.6 4285346620
-341.48999 7100.4399 14205.2 4285346620
-331.76999 7096.8398 14203.87 4285346620
-327.69 7097.0098 14207.24 4285346620
-322.09 7093.8599 14207.26 4285346620
-316.73999 7096.1699 14216.51 4285346620
-362.57001 7112.3501 14205.54 4285346620
-357.17999 7113.9902 14204.85 4285346620
-353.03 7112.8501 14202.17 4285346620
-347.85001 7104.9102 14209.63 4285346620
-342.12 7113.3701 14205.54 4285346620
-337.5 7117.0098 14210.65 4285346620
-332.54001 7113.1699 14211.01 4285346620
-342.89999 7129.75 14212.75 4285346620
-338.14999 7130.6602 14212.4 4285346620
-357.89999 7128.3198 14206.27 4285346620
-353.84 7129.2002 14207.61 4285346620
-349.12 7130.8301 14210.38 4285346620
-369.42001 7152.3301 14207.56 4285346620
-363.76001 7149.1899 14202.46 4285346620
-349.79001 7144.4502 14210.35 4285346620
-376.01999 7160.1602 14205.13 4285346620
-359.13 7152.8101 14204.11 4285346620
-355.16 7155.7598 14209.56 4285346620
-350.59 7160.8198 14217.43 4285346620
-365.5 7183.3398 14217.68 4285346620
-360.85001 7186.9702 14221.01 4285346620
-372.17001 7205.5 14211.34 4285346620
-378.41 7218.9399 14218.15 4285346620
-383.94 7231.6099 14216.61 4285346620
