# .PCD v0.7 - Point Cloud Data file format
VERSION 0.7
FIELDS x y z rgb
SIZE 4 4 4 4
TYPE F F F U
COUNT 1 1 1 1
WIDTH 1218
HEIGHT 1
VIEWPOINT 0 0 0 1 0 0 0
POINTS 1218
DATA ascii
-2146.8999 8604.8896 14428.26 4292272794
-2138.5601 8603.0596 14425.2 4292272794
-2130.6499 8599.4004 14417.87 4292272794
-2125.5 8603.3701 14414.38 4292272794
-2117.1799 8590.9102 14406.96 4292272794
-2181.96 8639.5596 14470.42 4292272794
-2169.6899 8618.7998 14434.4 4292272794
-2164.0701 8620.9297 14433.97 4292272794
-2157.3799 8618.7402 14431 4292272794
-2150.73 8620.25 14429.21 4292272794
-2142.22 8617.7998 14426.65 4292272794
-2134.28 8614.0898 14419.25 4292272794
-2127.4099 8611.0703 14414.9 4292272794
-2120.78 8605.5098 14406.64 4292272794
-2181.76 8638.7598 14445.79 4292272794
-2173.02 8632.0195 14433.28 4292272794
-2166.75 8635.1201 14434.13 4292272794
-2160.8401 8632.5898 14429.37 4292272794
-2154.22 8634.2402 14429.37 4292272794
-2144.9099 8628.6299 14421.54 4292272794
-2137.3601 8626.4902 14416.78 4292272794
-2130.28 8622.71 14411.16 4292272794
-2176.52 8645.9502 14433.35 4292272794
-2169.47 8645.9502 14429 4292272794
-2164.9199 8648.8701 14433.35 4292272794
-2157.3201 8646.6504 14426.88 4292272794
-2148.3799 8642.5703 14421.61 4292272794
-2140.8101 8640.4297 14416.85 4292272794
-2198.1499 8672.1201 14462.83 4292272794
-2186.6499 8658.1299 14431.69 4292272794
-2180.03 8659.8896 14433.39 4292272794
-2173.3701 8661.4697 14431.69 4292272794
-2167.8201 8660.46 14429.48 4292272794
-2160.02 8657.4805 14421.74 4292272794
-2151.8601 8656.5596 14421.75 4292272794
-2141.76 8644.2598 14400.07 4292272794
-2190.9299 8675.0898 14435.21 4292272794
-2183.3501 8673.0703 14432.16 4292272794
-2175.1101 8668.4199 14420.08 4292272794
-2171.3301 8674.46 14429.61 4292272794
-2163.5 8671.4199 14421.78 4292272794
-2154.1299 8665.71 14412.27 4292272794
-2200.46 8681.2402 14430.06 4292272794
-2192.8401 8686.1201 14430.04 4292272794
-2187.24 8688.5098 14433.11 4292272794
-2179.3701 8685.3799 14423.59 4292272794
-2172.8601 8680.5801 14416.63 4292272794
-2165.9299 8684.71 14418.83 4292272794
-2157.02 8677.3496 14408.48 4292272794
-2204.78 8698.2998 14435.25 4292272794
-2196.5701 8700.8896 14431.41 4292272794
-2189.5601 8697.75 14425.3 4292272794
-2182.48 8697.79 14421.05 4292272794
-2175.9099 8696.3301 14419.28 4292272794
-2168.6299 8695.54 14413.67 4292272794
-2158.9399 8685.04 14398.14 4292272794
-2208.3301 8712.3096 14435.33 4292272794
-2200.29 8715.6104 14432.68 4292272794
-2193.28 8712.5195 14426.66 4292272794
-2186.1699 8712.5098 14422.32 4292272794
-2178.99 8708.6396 14415.03 4292272794
-2170.55 8703.2305 14403.32 4292272794
-2223.8701 8724.3799 14430.96 4292272794
-2210.8501 8725.7197 14434.03 4292272794
-2202.6299 8724.9004 14424.94 4292272794
-2196.3701 8728.2803 14429.28 4292272794
-2189.48 8725.7002 14421.04 4292272794
-2182.0901 8721 14412.39 4292272794
-2237.22 8752.2002 14451.67 4292272794
-2226.99 8740.1396 14433.55 4292272794
-2218.22 8726.6904 14432.31 4292272794
-2213.99 8738.0898 14431.37 4292272794
-2206.9199 8741.9004 14428.38 4292272794
-2198.7 8737.5703 14421.53 4292272794
-2192.21 8736.5801 14415.92 4292272794
-2185.5901 8735.0098 14412.45 4292272794
-2238.1899 8756 14434.83 4292272794
-2230.3501 8753.3301 14432.24 4292272794
-2220.97 8737.5195 14427.11 4292272794
-2217.71 8752.7695 14430.98 4292272794
-2209.27 8751.1797 14420.62 4292272794
-2202.3899 8752.2002 14421.06 4292272794
-2196.1001 8752.0801 14418.43 4292272794
-2242.1599 8771.5596 14437.4 4292272794
-2234.1201 8768.1201 14433.53 4292272794
-2224.9299 8753.0703 14429.69 4292272794
-2220.25 8762.8301 14424.49 4292272794
-2213.78 8769.0596 14427.01 4292272794
-2204.52 8760.6699 14411.93 4292272794
-2198.21 8760.4902 14407.69 4292272794
-2252.4299 8783.6396 14455.49 4292272794
-2244.9299 8782.3799 14432.15 4292272794
-2237.6799 8782.0996 14433.45 4292272794
-2228.6699 8767.8096 14430.9 4292272794
-2224.3899 8779.1699 14428.32 4292272794
-2216.53 8779.9502 14421.85 4292272794
-2208.8401 8777.8301 14417.12 4292272794
-2269.6299 8819.0898 14470.79 4292272794
-2253.97 8789.6299 14440.74 4292272794
-2248.9099 8797.96 14434.69 4292272794
-2241.22 8795.9805 14431.66 4292272794
-2232.6101 8783.2695 14431.75 4292272794
-2229.29 8798.5 14424.76 4292272794
-2219.46 8791.5498 14417.87 4292272794
-2211.5601 8788.6602 14411.87 4292272794
-2270.21 8821.3096 14451.38 4292272794
-2256.74 8800.46 14435.48 4292272794
-2252.6599 8812.6104 14434.15 4292272794
-2245.1899 8811.5596 14434.18 4292272794
-2235.5601 8794.8896 14427.76 4292272794
-2230.6799 8803.9697 14422.98 4292272794
-2222.6001 8803.9805 14415.24 4292272794
-2213.8899 8797.9297 14404.08 4292272794
-2260.1299 8813.6602 14434.11 4292272794
-2254.6201 8820.29 14423.71 4292272794
-2248.3601 8823.9902 14431.53 4292272794
-2241.4199 8821.5098 14425.02 4292272794
-2234.02 8817.1797 14421.61 4292272794
-2271.74 8827.29 14436.61 4292272794
-2263.73 8827.7002 14434.07 4292272794
-2259.4099 8839.04 14431.36 4292272794
-2250.9199 8834.04 14424.98 4292272794
-2244.78 8834.7197 14423.63 4292272794
-2237.1499 8829.5 14417.25 4292272794
-2275.3401 8841.2695 14436.48 4292272794
-2266.5 8838.5195 14428.79 4292272794
-2261.3301 8850.0801 14426.06 4292272794
-2255.49 8851.9697 14431.26 4292272794
-2239.8899 8840.3203 14411.96 4292272794
-2227.73 8827.8896 14383.61 4292272794
-2295.0901 8872.21 14468.6 4292272794
-2283.1899 8850.6797 14429.47 4292272794
-2277.9099 8854.75 14435.15 4292272794
-2270.8999 8855.6699 14433.79 4292272794
-2265.73 8867.29 14431.14 4292272794
-2257.6101 8860.2998 14420.37 4292272794
-2251.0701 8859.4805 14416.57 4292272794
-2241.4299 8846.4199 14398.98 4292272794
-2295.45 8873.5596 14447.82 4292272794
-2289.01 8873.25 14431.03 4292272794
-2284.71 8881.2002 14432.27 4292272794
-2273.8601 8867.2197 14428.13 4292272794
-2267.8799 8875.7305 14421.94 4292272794
-2261.1899 8874.3496 14420.29 4292272794
-2254.6299 8873.4697 14416.41 4292272794
-2245.1699 8861.1797 14400.1 4292272794
-2311.3201 8906.7598 14475.59 4292272794
-2299.03 8887.4199 14435.17 4292272794
-2290.8 8880.1602 14430.05 4292272794
-2278.2 8887.6904 14427.41 4292272794
-2272.24 8892.79 14425.21 4292272794
-2265.1699 8889.96 14422.73 4292272794
-2256.5701 8881.1299 14405.94 4292272794
-2311.02 8909.0996 14456.06 4292272794
-2300.8201 8894.3496 14434.18 4292272794
-2294 8892.5996 14427.33 4292272794
-2290.3 8902.9404 14432.45 4292272794
-2279.79 8893.8896 14425.23 4292272794
-2275.02 8903.6699 14419.95 4292272794
-2266.0601 8897.0498 14410.98 4292272794
-2325.45 8933.0303 14475.15 4292272794
-2310.95 8908.8496 14432.74 4292272794
-2304.6599 8909.1797 14435.32 4292272794
-2298.24 8909 14431 4292272794
-2292.29 8910.6504 14432.71 4292272794
-2282.97 8906.2803 14422.42 4292272794
-2278.8 8918.46 14421.01 4292272794
-2268.01 8904.6904 14400.5 4292272794
-2327.6699 8941.5498 14465.98 4292272794
-2314.3899 8922.0898 14431.25 4292272794
-2308.28 8923.1904 14435.11 4292272794
-2302.0601 8923.8398 14432.14 4292272794
-2295.8999 8924.71 14432.58 4292272794
-2286.3601 8919.5 14420.95 4292272794
-2280.75 8926.0996 14410.51 4292272794
-2328.6399 8945.25 14449.05 4292272794
-2318.3999 8937.5498 14431.85 4292272794
-2314.72 8948.0801 14429.59 4292272794
-2305.0601 8935.4502 14428.04 4292272794
-2302.3 8949.5596 14426.98 4292272794
-2283.9299 8938.54 14407.76 4292272794
-2343.46 8973.9502 14472.34 4292272794
-2329.8 8949.71 14433.39 4292272794
-2322.6499 8953.96 14435.47 4292272794
-2309.0601 8950.9697 14428.7 4292272794
-2305.3 8961.2197 14422.94 4292272794
-2293.1101 8945.8398 14416.26 4292272794
-2342.71 8971.0898 14443.34 4292272794
-2333.04 8962.1602 14430.61 4292272794
-2325.8799 8966.4102 14432.69 4292272794
-2318.9399 8964.3896 14431.5 4292272794
-2312.27 8963.4199 14425.92 4292272794
-2296.71 8959.9102 14416.1 4292272794
-2344.72 8978.7998 14432.88 4292272794
-2337.72 8980.1504 14436.74 4292272794
-2328.6899 8977.2402 14427.29 4292272794
-2322.1499 8976.7803 14428.62 4292272794
-2315.8899 8977.4404 14425.66 4292272794
-2309.8999 8979.1104 14427.36 4292272794
-2299.29 8969.9404 14409.44 4292272794
-2355.02 8997.0703 14441.58 4292272794
-2348.5901 8993.5996 14433.85 4292272794
-2340.51 8990.8701 14429.61 4292272794
-2332.1299 8990.4697 14425.75 4292272794
-2325.5701 8990.0195 14427.08 4292272794
-2319.1001 8989.8896 14422.85 4292272794
-2311.25 8984.3799 14413.04 4292272794
-2301.6399 8979.1396 14401.44 4292272794
-2370.5901 9031.7803 14475.46 4292272794
-2358.03 9008.5703 14435.71 4292272794
-2352.27 9007.6797 14433.63 4292272794
-2343.72 9006.7402 14431.92 4292272794
-2335.95 9005.2197 14425.09 4292272794
-2331.5701 9016.7803 14424.05 4292272794
-2322.52 9003.1299 14421.3 4292272794
-2317.2 9011.0801 14409.94 4292272794
-2370.71 9032.2402 14453.37 4292272794
-2362.1299 9024.2305 14438 4292272794
-2355.5 9020.0801 14430.72 4292272794
-2347.1699 9019.9805 14430.35 4292272794
-2338.96 9016.8301 14420.92 4292272794
-2333.95 9025.9805 14416.01 4292272794
-2324.4199 9014.0596 14414.17 4292272794
-2372.8601 9040.4404 14431.57 4292272794
-2364.3301 9032.6396 14428.68 4292272794
-2359.3601 9034.8301 14430.03 4292272794
-2351.6499 9037.2197 14435.15 4292272794
-2343.02 9032.4902 14423.2 4292272794
-2327.6101 9026.46 14411.25 4292272794
-2385.77 9061.3301 14461.75 4292272794
-2374.8899 9048.1699 14431.75 4292272794
-2369.8301 9053.6504 14427.36 4292272794
-2363.02 9048.8701 14429.69 4292272794
-2354.6899 9048.9004 14431.03 4292272794
-2346.26 9044.9502 14420.35 4292272794
-2336.9299 9037.5195 14410.19 4292272794
-2329.1699 9032.4902 14398.16 4292272794
-2385.6699 9060.96 14438.4 4292272794
-2379 9063.8398 14434 4292272794
-2371.6899 9060.7598 14428.07 4292272794
-2367.6399 9070.1201 14428.34 4292272794
-2357.27 9058.8096 14422.6 4292272794
-2348.1599 9055.8799 14413.17 4292272794
-2402.3799 9096.0703 14460.8 4292272794
-2388.73 9072.5801 14434.17 4292272794
-2383.1101 9079.5195 14436.23 4292272794
-2375.1299 9073.8896 14424.74 4292272794
-2369.0701 9075.5996 14426.45 4292272794
-2360.9199 9072.8604 14422.24 4292272794
-2351.6001 9069.1201 14411.56 4292272794
-2402.53 9096.6201 14449.57 4292272794
-2392.22 9085.8301 14432.54 4292272794
-2386.1799 9091.1904 14432.07 4292272794
-2379.23 9089.5703 14426.96 4292272794
-2364.8 9087.75 14423.2 4292272794
-2356.04 9086.2695 14405.52 4292272794
-2403.8999 9101.8096 14435.09 4292272794
-2395.28 9100.9502 14433.48 4292272794
-2388.8101 9101.2197 14425.31 4292272794
-2384.1699 9108.4297 14434.19 4292272794
-2376.2 9102.9102 14424.42 4292272794
-2368.8 9103.1396 14412.84 4292272794
-2420.3999 9132.3799 14464.15 4292272794
-2407.6201 9115.9102 14434.77 4292272794
-2401.24 9123.5898 14434.56 4292272794
-2393.9399 9120.7598 14432.07 4292272794
-2386.3799 9116.8799 14424.91 4292272794
-2378.99 9113.6104 14417.2 4292272794
-2370.4299 9109.4004 14412.2 4292272794
-2422.21 9139.21 14452.25 4292272794
-2411.51 9130.6299 14433.89 4292272794
-2403.29 9131.3701 14434.8 4292272794
-2396.77 9135.0996 14431.73 4292272794
-2389.4199 9128.5 14420.64 4292272794
-2383.73 9131.7402 14423.23 4292272794
-2373.8501 9122.5303 14408.82 4292272794
-2432.26 9159.3701 14463.27 4292272794
-2420.1399 9134.9102 14422.45 4292272794
-2415.45 9145.54 14434.79 4292272794
-2406.1399 9142.2002 14429.26 4292272794
-2399.6101 9145.9297 14426.19 4292272794
-2394.1399 9146.5098 14424.94 4292272794
-2386.3501 9141.7695 14416.44 4292272794
-2376.6699 9133.3496 14403.3 4292272794
-2432.3501 9159.71 14441.15 4292272794
-2425.5701 9155.4297 14432.21 4292272794
-2418.95 9158.8096 14433.09 4292272794
-2409.6299 9155.4697 14427.56 4292272794
-2403.0901 9159.2002 14424.49 4292272794
-2396.0901 9157.5703 14419.39 4292272794
-2389.1699 9152.5996 14410.9 4292272794
-2445.02 9182.5801 14455.6 4292272794
-2435.23 9170.54 14435.59 4292272794
-2429.73 9171.1396 14434.33 4292272794
-2423.0901 9174.4697 14435.13 4292272794
-2413.1201 9168.75 14425.84 4292272794
-2406.3601 9171.6699 14421.52 4292272794
-2399.5701 9170.8398 14417.68 4292272794
-2446.8201 9189.3203 14443.59 4292272794
-2438.3301 9182.2305 14431.34 4292272794
-2434.29 9188.3301 14437.24 4292272794
-2426.8201 9188.5996 14434.74 4292272794
-2416.79 9182.6904 14423.66 4292272794
-2409.8101 9184.8203 14418.08 4292272794
-2401.55 9178.4199 14407.01 4292272794
-2449.0701 9197.7803 14434.23 4292272794
-2442.28 9197.0996 14432.1 4292272794
-2437.1599 9199.1699 14431.65 4292272794
-2430.75 9203.4902 14435.49 4292272794
-2420.72 9197.6201 14424.51 4292272794
-2413.29 9198.0898 14416.35 4292272794
-2405.24 9192.54 14406.62 4292272794
-2465.28 9226.6396 14458.72 4292272794
-2453.6799 9215.0996 14438.82 4292272794
-2445.3501 9208.6504 14426.14 4292272794
-2440.8999 9213.2998 14431.23 4292272794
-2432.72 9210.9404 14423.09 4292272794
-2424.21 9210.8896 14422.75 4292272794
-2416.1299 9208.9102 14410.76 4292272794
-2465.98 9229.25 14438.71 4292272794
-2457 9227.5801 14435.79 4292272794
-2449.95 9225.9697 14430.71 4292272794
-2444.4199 9226.5801 14429.46 4292272794
-2436.4299 9228.5596 14427.75 4292272794
-2481.46 9262.2695 14464.35 4292272794
-2469.3201 9241.7305 14435.68 4292272794
-2461.8 9245.5898 14439.89 4292272794
-2454.1299 9241.71 14432.76 4292272794
-2448.3701 9241.4697 14430.18 4292272794
-2439.5 9240.1904 14423.38 4292272794
-2430.1399 9233.4004 14412.88 4292272794
-2483.0601 9268.25 14451.12 4292272794
-2472.1899 9256.0498 14435.13 4292272794
-2464.26 9254.8203 14431.75 4292272794
-2457 9252.54 14427.13 4292272794
-2450.77 9250.5596 14420.34 4292272794
-2442.1499 9250.21 14416.51 4292272794
-2433.3701 9245.6904 14408.05 4292272794
-2483.5601 9270.0996 14431.48 4292272794
-2475.74 9269.3398 14433.32 4292272794
-2468.6599 9271.3701 14435.03 4292272794
-2460.97 9267.4805 14427.91 4292272794
-2455.8101 9269.5703 14427.45 4292272794
-2446.52 9266.7598 14419.78 4292272794
-2436.01 9255.71 14401.17 4292272794
-2508.0801 9311.6201 14475.75 4292272794
-2496.7 9290.6201 14445.34 4292272794
-2488.6599 9289.1299 14438.55 4292272794
-2479.5 9283.4297 14432.74 4292272794
-2472.2 9284.6602 14433.2 4292272794
-2464.02 9278.9805 14421.8 4292272794
-2459.76 9284.4697 14428.12 4292272794
-2449.3401 9277.4502 14412.43 4292272794
-2509.46 9316.7402 14461.16 4292272794
-2499.1699 9299.8398 14437.17 4292272794
-2491.95 9301.4297 14433.67 4292272794
-2483.02 9296.5898 14429.19 4292272794
-2475.1001 9295.54 14427.62 4292272794
-2468.21 9294.7402 14423.79 4292272794
-2462.2 9293.6904 14419.97 4292272794
-2451.5601 9285.8604 14403.03 4292272794
-2511.0701 9322.7197 14447.89 4292272794
-2502.3 9311.4697 14432.74 4292272794
-2495.96 9316.3896 14434.39 4292272794
-2487.4399 9313.1602 14432.41 4292272794
-2479.03 9310.3096 14426.56 4292272794
-2471.74 9308.0303 14421.95 4292272794
-2465.51 9306.1797 14416.88 4292272794
-2454.4199 9296.6699 14397.37 4292272794
-2526.5901 9355.3096 14475.51 4292272794
-2512.8899 9329.4697 14435.88 4292272794
-2506.0901 9329.1396 14437.27 4292272794
-2499.96 9331.2998 14435.01 4292272794
-2492.8999 9333.5996 14431.14 4292272794
-2482.1299 9321.9502 14422.12 4292272794
-2474.8 9323.1797 14422.58 4292272794
-2468.3601 9320.5195 14416.27 4292272794
-2526.1899 9353.8701 14450.76 4292272794
-2515.3101 9342.0098 14430.96 4292272794
-2509.8401 9343.1201 14434.92 4292272794
-2502.21 9339.71 14425.57 4292272794
-2494.55 9339.7598 14428.67 4292272794
-2484.5601 9334.6797 14419 4292272794
-2478.1201 9335.6699 14419.46 4292272794
-2469.8799 9326.25 14401.22 4292272794
-2541.78 9386.5703 14478.38 4292272794
-2526.8999 9360.0498 14437.48 4292272794
-2519.3401 9356.9805 14431.63 4292272794
-2513.4199 9356.4199 14433.03 4292272794
-2507.1001 9357.9697 14431.32 4292272794
-2497.4399 9350.5898 14422.96 4292272794
-2490.3999 9356.6104 14418.47 4292272794
-2481.6101 9348.8398 14415.87 4292272794
-2529.8201 9370.8799 14431.75 4292272794
-2523.1399 9371.0898 14430.97 4292272794
-2516.77 9368.9199 14429.88 4292272794
-2511.73 9375.2305 14434.01 4292272794
-2501.6499 9366.3701 14424.88 4292272794
-2491.8601 9362.0898 14416.47 4292272794
-2484.6399 9360.2402 14400.6 4292272794
-2473.01 9338.0703 14374.72 4292272794
-2542.3201 9388.5303 14436.52 4292272794
-2533.8701 9385.8496 14432.4 4292272794
-2526.9399 9385.21 14430.29 4292272794
-2521.23 9385.5195 14433.02 4292272794
-2514.1799 9384.3896 14425.7 4292272794
-2504.96 9378.7305 14420.01 4292272794
-2495.6299 9376.2598 14415.89 4292272794
-2485.8401 9364.7598 14395.64 4292272794
-2545.25 9399.3604 14430.77 4292272794
-2537.1899 9398.1602 14427.42 4292272794
-2530.97 9400.1904 14430.93 4292272794
-2518.1899 9399.3799 14426.34 4292272794
-2498.6899 9387.75 14409.68 4292272794
-2488.05 9373.0898 14386.1 4292272794
-2560.0801 9421.8896 14444.83 4292272794
-2550.4199 9418.4502 14437.68 4292272794
-2541.8999 9415.6299 14431.85 4292272794
-2535.1699 9415.7998 14430.99 4292272794
-2528.3899 9412.1504 14429.14 4292272794
-2520.4099 9411.2598 14421.82 4292272794
-2500.9099 9396.0801 14400.13 4292272794
-2561.4399 9430.4805 14435.24 4292272794
-2553.8 9430.96 14434.47 4292272794
-2545.72 9429.7598 14431.13 4292272794
-2539.21 9430.79 14431.6 4292272794
-2531.47 9423.6396 14422.9 4292272794
-2524.6399 9427.0596 14423.67 4292272794
-2576.79 9461.8896 14463.56 4292272794
-2565.46 9445.2695 14434.04 4292272794
-2556.9199 9442.4502 14428.21 4292272794
-2548.8799 9441.4502 14426.67 4292272794
-2542.5801 9443.2998 14428.38 4292272794
-2535.72 9439.4502 14424.74 4292272794
-2527.95 9439.4297 14418.75 4292272794
-2516.51 9425.6104 14402.14 4292272794
-2577.04 9462.8096 14442.6 4292272794
-2569.98 9461.9004 14437.09 4292272794
-2562.1001 9461.5801 14435.08 4292272794
-2553.1299 9457.21 14428.4 4292272794
-2546.6001 9458.25 14428.88 4292272794
-2539.3 9452.7695 14422.76 4292272794
-2531.3 9451.9297 14415.53 4292272794
-2588.6699 9480.4102 14451.24 4292272794
-2579.55 9472.0195 14434.31 4292272794
-2573.6001 9475.2305 14435.08 4292272794
-2565.03 9472.4004 14429.27 4292272794
-2557.1399 9472.0703 14427.25 4292272794
-2549.75 9469.9502 14424.39 4292272794
-2542.8799 9466.0996 14420.76 4292272794
-2532.8601 9457.7598 14402.12 4292272794
-2590.95 9488.75 14441.6 4292272794
-2582.96 9484.5303 14431.05 4292272794
-2577.45 9489.4199 14434.38 4292272794
-2569.53 9489.0498 14432.29 4292272794
-2562.0801 9490.3398 14432.76 4292272794
-2552.23 9479.1504 14416.1 4292272794
-2546.01 9477.7402 14416.19 4292272794
-2536.8799 9472.7598 14402.68 4292272794
-2593 9496.2598 14430.73 4292272794
-2587.27 9500.3496 14432.81 4292272794
-2580.8501 9501.9404 14431.1 4292272794
-2572.7 9500.75 14427.78 4292272794
-2564.1001 9497.8604 14421.89 4292272794
-2556.22 9493.96 14414.84 4292272794
-2549.77 9491.7305 14413.7 4292272794
-2606.3601 9520 14444.17 4292272794
-2596.6399 9509.5898 14428.68 4292272794
-2591.3401 9515.3203 14433.25 4292272794
-2585.3701 9518.5898 14434.09 4292272794
-2576.53 9514.8896 14426.97 4292272794
-2567.48 9510.3701 14418.61 4292272794
-2560.25 9508.9199 14415.28 4292272794
-2608.3701 9527.3701 14431.56 4292272794
-2599.6101 9524.04 14427.95 4292272794
-2594.71 9527.6797 14428.24 4292272794
-2588.04 9528.4004 14425.2 4292272794
-2580.6001 9529.9199 14427.47 4292272794
-2571.76 9526.21 14420.35 4292272794
-2562.26 9520.04 14409.52 4292272794
-2624.04 9555.8203 14459.86 4292272794
-2612.47 9542.3301 14431.96 4292272794
-2604.78 9543 14432.91 4292272794
-2599.25 9544.3496 14431.19 4292272794
-2593.25 9547.5801 14431.96 4292272794
-2583.48 9544.1797 14424.93 4292272794
-2574 9538.1602 14415.81 4292272794
-2565.6299 9532.5596 14406.22 4292272794
-2616.5801 9557.3604 14432.43 4292272794
-2607.52 9553.0098 14425.79 4292272794
-2602.2 9555.1699 14425.32 4292272794
-2595.52 9555.9502 14422.37 4292272794
-2585.05 9549.9805 14411.47 4292272794
-2577.78 9552.1602 14413.26 4292272794
-2565.3899 9531.6797 14382.71 4292272794
-2626.8 9565.8701 14430.52 4292272794
-2621.1499 9574.0303 14435.35 4292272794
-2611.8401 9568.8604 14427.49 4292272794
-2607.2 9573.54 14430.8 4292272794
-2589.8 9567.5195 14415.72 4292272794
-2581.1399 9564.6299 14409.85 4292272794
-2643.1799 9596.6904 14453.33 4292272794
-2630 9577.5195 14425.84 4292272794
-2624.5801 9586.5596 14432 4292272794
-2617.0801 9588.0498 14434.19 4292272794
-2609.9199 9583.5498 14423.66 4292272794
-2603.45 9585.1504 14421.95 4292272794
-2656.1101 9622.0195 14472.99 4292272794
-2644.55 9601.6699 14438.59 4292272794
-2635.72 9598.3604 14435 4292272794
-2628.8601 9602.2197 14431.86 4292272794
-2619.5901 9597.2598 14425.79 4292272794
-2613.96 9598.3896 14422.29 4292272794
-2607.26 9599.1602 14419.35 4292272794
-2597.71 9596.7305 14415.28 4292272794
-2656.5801 9623.7305 14453.3 4292272794
-2647.55 9612.5498 14432.75 4292272794
-2638.4299 9608.21 14426.12 4292272794
-2631.8201 9616.6396 14430.95 4292272794
-2624.3799 9614.7695 14429.91 4292272794
-2617.1399 9613.6904 14422.71 4292272794
-2609.05 9609.4199 14412.19 4292272794
-2599.23 9602.3496 14400.08 4292272794
-2671.6599 9649.46 14474.22 4292272794
-2658.2 9629.5801 14439.86 4292272794
-2652.6101 9630.9004 14438.06 4292272794
-2643.48 9626.6104 14431.54 4292272794
-2635.48 9630 14428.79 4292272794
-2627.74 9627.0898 14424.73 4292272794
-2620.0901 9624.5303 14416.76 4292272794
-2611.3 9617.71 14402.48 4292272794
-2671.3701 9652.0195 14453.96 4292272794
-2656.53 9645.1396 14437.21 4292272794
-2646.6699 9641.8604 14431.84 4292272794
-2638.22 9640.0098 14421.6 4292272794
-2632.0701 9642.9697 14426.34 4292272794
-2623.73 9637.8799 14414.6 4292272794
-2614.9299 9631.0703 14400.31 4292272794
-2672.51 9656.1504 14437.97 4292272794
-2660.1499 9658.2803 14433.23 4292272794
-2649.8899 9653.5703 14427.19 4292272794
-2643.48 9659.25 14428.21 4292272794
-2633.8899 9649.6201 14414.14 4292272794
-2627.8101 9652.8799 14414.89 4292272794
-2617.4199 9640.2305 14391.9 4292272794
-2675.75 9667.8604 14433.3 4292272794
-2664.52 9674.1699 14434.8 4292272794
-2653.78 9667.75 14426.23 4292272794
-2645.48 9666.5596 14415.52 4292272794
-2638.45 9666.3301 14416.96 4292272794
-2630.0801 9661.2305 14405.23 4292272794
-2694.1799 9701.8799 14460.91 4292272794
-2679.6799 9682.04 14432.33 4292272794
-2667.75 9685.8799 14430.13 4292272794
-2658.8401 9686.1797 14431.58 4292272794
-2651.22 9687.5303 14424.64 4292272794
-2641.8701 9678.8701 14413.53 4292272794
-2632.76 9671.0596 14396.32 4292272794
-2694.6399 9707.1396 14446.21 4292272794
-2684.53 9699.5898 14436.34 4292272794
-2670.5 9699.5098 14427.91 4292272794
-2662 9697.6797 14425.1 4292272794
-2653.26 9694.9902 14413.64 4292272794
-2645.47 9692.0703 14409.6 4292272794
-2634.0901 9675.9697 14381.56 4292272794
-2697.6001 9717.8096 14438.48 4292272794
-2688.4199 9713.6299 14433.62 4292272794
-2674.4099 9713.7002 14426.9 4292272794
-2664.97 9708.5098 14419.09 4292272794
-2656.45 9706.6396 14408.87 4292272794
-2634.0601 9675.8301 14359.34 4292272794
-2709.76 9732.6396 14442.93 4292272794
-2700.8401 9729.4697 14433.68 4292272794
-2692.5901 9728.71 14433.9 4292272794
-2677.8201 9726.0801 14421.71 4292272794
-2669.3301 9724.4199 14420.62 4292272794
-2659.8799 9719.1699 14405.4 4292272794
-2712.5 9742.4805 14433.95 4292272794
-2705.02 9744.5596 14433.95 4292272794
-2697 9744.6201 14435.41 4292272794
-2682.1799 9741.9404 14423.13 4292272794
-2671.3799 9731.8701 14409.6 4292272794
-2663.0801 9730.8799 14400.69 4292272794
-2650.1799 9712.9902 14374.14 4292272794
-2715.74 9754.1299 14429.13 4292272794
-2708.74 9757.9297 14431.67 4292272794
-2701.1599 9759.6602 14435.58 4292272794
-2684.7 9751.0996 14414.64 4292272794
-2675.29 9746.1201 14408.64 4292272794
-2648.3999 9706.46 14352.75 4292272794
-2720.6499 9771.7695 14433.14 4292272794
-2712.6799 9772.1396 14430.6 4292272794
-2703.47 9768 14425.84 4292272794
-2696.1599 9770.7402 14425.36 4292272794
-2679.3701 9760.9902 14407.11 4292272794
-2723.6699 9782.5996 14427.07 4292272794
-2716.1599 9784.6797 14427.07 4292272794
-2707.3999 9782.21 14424.77 4292272794
-2699.8501 9784.1201 14423.05 4292272794
-2682.1101 9770.9697 14399.82 4292272794
-2737.6899 9803.8701 14437.99 4292272794
-2729.28 9802.7402 14434.72 4292272794
-2721 9802.1201 14429.25 4292272794
-2711.52 9797.0898 14423.19 4292272794
-2703.3101 9796.6699 14419.51 4292272794
-2741.4299 9817.25 14435.65 4292272794
-2733.1899 9816.7998 14431.89 4292272794
-2724.01 9812.9404 14423.15 4292272794
-2715.22 9810.4697 14420.86 4292272794
-2761.78 9842.7695 14472.33 4292272794
-2747.45 9817.0098 14434.67 4292272794
-2736.6799 9829.3496 14428.32 4292272794
-2728.4299 9828.8896 14424.56 4292272794
-2718.6899 9823.0195 14417.3 4292272794
-2709.24 9818.1504 14405.62 4292272794
-2761.25 9840.8896 14447.5 4292272794
-2750.96 9829.5596 14431.09 4292272794
-2744.8701 9829.5801 14430.28 4292272794
-2740.4099 9846.4004 14430.94 4292272794
-2732.6299 9844 14424.73 4292272794
-2722.1599 9839.2305 14418.7 4292272794
-2712.7 9830.6904 14402.05 4292272794
-2762.6399 9845.8203 14432.73 4292272794
-2755.6599 9846.3398 14433.71 4292272794
-2749.3301 9845.5303 14431.67 4292272794
-2743.1899 9856.3896 14423.58 4292272794
-2735.6399 9854.8301 14418.61 4292272794
-2725.3401 9850.7197 14412.08 4292272794
-2715.9099 9842.3398 14397.16 4292272794
-2781.1101 9878.8799 14462.64 4292272794
-2767.1001 9861.7197 14434.01 4292272794
-2758.47 9878.2803 14435.62 4292272794
-2753.55 9860.6504 14431.82 4292272794
-2746.9199 9869.7803 14421.2 4292272794
-2740.25 9871.4502 14419.48 4292272794
-2730.23 9868.4102 14415.98 4292272794
-2782.5 9883.8096 14447.84 4292272794
-2770.6201 9874.2695 14430.4 4292272794
-2761.5 9889.1104 14429.47 4292272794
-2752.01 9888.0898 14424.5 4292272794
-2745.8601 9891.6602 14427.02 4292272794
-2784.1201 9889.5703 14434.26 4292272794
-2776.24 9894.3096 14436.21 4292272794
-2770.6499 9903.5898 14429.08 4292272794
-2768.05 9912.5703 14440.23 4292272794
-2765.25 9935.6504 14471.84 4292272794
-2750.04 9910.4199 14432.02 4292272794
-2801.6399 9922.5996 14460.65 4292272794
-2789.3999 9911.9697 14432.85 4292272794
-2782.51 9916.6299 14436.51 4292272794
-2771.0801 9923.4102 14434.05 4292272794
-2759.01 9913.2197 14417.2 4292272794
-2749.98 9910.1797 14409.71 4292272794
-2802.54 9925.7803 14443.3 4292272794
-2791.6101 9919.8096 14432.57 4292272794
-2785.4399 9927.0996 14440.06 4292272794
-2779.3701 9934.7197 14450.98 4292272794
-2771.96 9930.2695 14421.67 4292272794
-2763.21 9928.2998 14417.2 4292272794
-2750.3799 9911.6504 14389.95 4292272794
-2805.3601 9935.7695 14435.88 4292272794
-2800.2 9950.3496 14455.01 4292272794
-2787.52 9934.5098 14428.9 4292272794
-2779.0601 9933.6299 14427.45 4292272794
-2775.23 9941.9902 14416.77 4292272794
-2766.47 9940.0303 14412.31 4292272794
-2755.28 9929.2998 14393.69 4292272794
-2840 9977.9102 14467.62 4292272794
-2822.0801 9969.4004 14458.17 4292272794
-2811.3101 9956.8604 14444.55 4292272794
-2792.48 9952.1797 14432.61 4292272794
-2784.77 9954.0596 14423.46 4292272794
-2768.95 9948.9297 14401.87 4292272794
-2849.72 9982.9697 14454.7 4292272794
-2824.54 9978.1201 14438.62 4292272794
-2812.7 9965.4404 14434.67 4292272794
-2804.6101 9966.0303 14433.87 4292272794
-2796.5 9966.4902 14431.43 4292272794
-2790.3201 9973.8799 14420.02 4292272794
-2781.6499 9964.9805 14416.52 4292272794
-2772.4399 9961.4902 14398.18 4292272794
-2837.9299 9999.7803 14469.78 4292272794
-2827.6101 9988.9502 14432.38 4292272794
-2816.1799 9977.7695 14429.16 4292272794
-2808.1599 9978.6104 14430.15 4292272794
-2799.96 9978.8301 14425.93 4292272794
-2794.3101 9988.1299 14418.74 4292272794
-2788.0801 9987.9902 14416.22 4292272794
-2772.3501 9961.1699 14375.88 4292272794
-2836.8799 9996.0801 14442.5 4292272794
-2822.1399 9998.8799 14437.78 4292272794
-2812.1201 9992.6904 14427.15 4292272794
-2804.45 9994.8496 14427.15 4292272794
-2790.3899 9996.29 14406.33 4292272794
-2857.4299 10039.15 14466.9 4292272794
-2840.6399 10009.32 14438.26 4292272794
-2832.5701 10006.46 14434.31 4292272794
-2825.22 10009.79 14431.59 4292272794
-2815.8899 10006.11 14424.63 4292272794
-2807.98 10007.42 14423.41 4292272794
-2798.25 10002.21 14415.73 4292272794
-2857.8401 10040.59 14447.07 4292272794
-2844.21 10021.89 14434.5 4292272794
-2840.1599 10033.3 14429.23 4292272794
-2829.97 10026.64 14434 4292272794
-2820.1599 10021.27 14424.61 4292272794
-2811.51 10019.99 14419.66 4292272794
-2805.03 10026.45 14406.94 4292272794
-2791.6799 10000.9 14389.69 4292272794
-2859.7 10047.14 14434.62 4292272794
-2847.3 10036.43 14433.17 4292272794
-2844.7 10049.31 14430.39 4292272794
-2834.24 10041.76 14433.88 4292272794
-2824.1799 10035.54 14423.28 4292272794
-2814.02 10032.6 14414.11 4292272794
-2809.51 10042.47 14408.11 4292272794
-2862.75 10061.5 14431.54 4292272794
-2852.0801 10053.29 14435.54 4292272794
-2849.23 10065.34 14431.54 4292272794
-2836.04 10048.12 14419.72 4292272794
-2828.9199 10052.4 14425.66 4292272794
-2819.24 10051.21 14419.01 4292272794
-2808.4399 10038.65 14380.86 4292272794
-2877.49 10083.91 14444.98 4292272794
-2867.29 10077.47 14432.6 4292272794
-2856.3899 10068.47 14435.48 4292272794
-2842.01 10069.28 14428.24 4292272794
-2830.95 10059.6 14412.71 4292272794
-2821.55 10059.44 14408.99 4292272794
-2872.1101 10094.4 14435.01 4292272794
-2860.6201 10083.42 14433.6 4292272794
-2852.97 10078.53 14427.16 4292272794
-2845.3201 10081.02 14423.22 4292272794
-2835.9399 10077.33 14416.28 4292272794
-2823.8701 10067.72 14399.04 4292272794
-2897.8301 10122.08 14478.4 4292272794
-2881.02 10096.31 14439.44 4292272794
-2875.4299 10106.08 14429.88 4292272794
-2864.6799 10097.7 14432.2 4292272794
-2858 10096.32 14430.78 4292272794
-2848.3799 10091.84 14416.9 4292272794
-2839.72 10090.75 14413.68 4292272794
-2901.6799 10135.54 14475.76 4292272794
-2888.4299 10122.28 14432.89 4292272794
-2880.24 10122.97 14432.18 4292272794
-2868.99 10112.89 14432.09 4292272794
-2865.1201 10125.17 14427.96 4292272794
-2843.02 10102.48 14408.64 4292272794
-2901.3301 10134.33 14452.18 4292272794
-2892.53 10136.62 14431.53 4292272794
-2885.29 10140.72 14435.67 4292272794
-2872.3 10124.57 14426.95 4292272794
-2868.9199 10138.61 14425.32 4292272794
-2856.3899 10120.22 14412.37 4292272794
-2844.8601 10112.72 14401.1 4292272794
-2902.1899 10137.34 14434.66 4292272794
-2898.3401 10156.99 14438.72 4292272794
-2888.3201 10151.37 14427.58 4292272794
-2876.3701 10138.92 14425.6 4292272794
-2860.6699 10135.42 14412.23 4292272794
-2916.3401 10160.97 14449.27 4292272794
-2907.29 10155.15 14438.21 4292272794
-2901.6699 10168.67 14433.54 4292272794
-2892.6399 10166.57 14427.41 4292272794
-2880.8601 10154.73 14424.85 4292272794
-2872.9099 10152.72 14422.15 4292272794
-2865.3 10151.81 14403.61 4292272794
-2918.9099 10169.92 14438.74 4292272794
-2910.1001 10164.94 14428.9 4292272794
-2906.95 10187.16 14436.55 4292272794
-2897.46 10183.49 14429.64 4292272794
-2885.4099 10170.79 14425.89 4292272794
-2876.72 10166.16 14419.48 4292272794
-2935.3401 10201.35 14464.34 4292272794
-2922.01 10180.74 14432.34 4292272794
-2915.4299 10183.56 14433.55 4292272794
-2910.28 10198.85 14431.35 4292272794
-2900.29 10193.47 14422.03 4292272794
-2890.55 10188.9 14419.64 4292272794
-2883.6001 10190.49 14410.48 4292272794
-2937 10207.11 14439.09 4292272794
-2926.1399 10198.79 14435.75 4292272794
-2919.52 10197.86 14432.05 4292272794
-2912.6599 10210.87 14426.22 4292272794
-2905.1101 10210.41 14424.22 4292272794
-2892.0601 10194.21 14415.59 4292272794
-2884.9399 10195.21 14395.45 4292272794
-2938.77 10213.28 14436.23 4292272794
-2932.27 10220.19 14432.66 4292272794
-2925.6499 10219.26 14428.96 4292272794
-2909.3799 10225.38 14422.19 4292272794
-2895.3899 10205.95 14410.46 4292272794
-2886.29 10199.98 14380.5 4292272794
-2956.8201 10246.44 14465.96 4292272794
-2942.1499 10225.02 14431.08 4292272794
-2934.3601 10227.46 14432.8 4292272794
-2927.48 10225.67 14427.89 4292272794
-2919.75 10235.76 14428.02 4292272794
-2912.47 10236.27 14415.83 4292272794
-2899.6899 10221.11 14410.15 4292272794
-2946.29 10243.11 14434.44 4292272794
-2939.1699 10244.22 14433.23 4292272794
-2932.8301 10244.33 14432.46 4292272794
-2924.6101 10252.77 14418.68 4292272794
-2916.04 10248.81 14411.79 4292272794
-2902.46 10230.88 14400.79 4292272794
-2963.2 10268.52 14431.82 4292272794
-2949.9099 10255.71 14430.47 4292272794
-2943.52 10259.4 14432.88 4292272794
-2936.6201 10257.6 14427.97 4292272794
-2919.8899 10262.32 14409.11 4292272794
-2902.3301 10234.15 14383.33 4292272794
-2975.8401 10286.43 14452.57 4292272794
-2954.52 10271.74 14431.31 4292272794
-2946.6299 10270.23 14426.41 4292272794
-2939.49 10271.35 14425.2 4292272794
-2932.53 10280.55 14414.34 4292272794
-2903.6499 10238.83 14368.28 4292272794
-2977.47 10292.06 14438.76 4292272794
-2966.53 10280.07 14424.91 4292272794
-2960.1001 10291.13 14435.4 4292272794
-2952.25 10289.82 14432.21 4292272794
-2936.8799 10295.79 14414.03 4292272794
-2999.3301 10334.2 14478.3 4292272794
-2981.5601 10306.19 14435.44 4292272794
-2971.4399 10300.8 14431.9 4292272794
-2963.98 10304.6 14432.59 4292272794
-2956.3799 10304.2 14430.7 4292272794
-2949.2 10305.27 14429.41 4292272794
-2999.4299 10334.56 14457.08 4292272794
-2986.72 10324.01 14438.71 4292272794
-2975.8201 10315.99 14431.49 4292272794
-2966.6001 10313.71 14423.67 4292272794
-3015.6299 10368.07 14477.37 4292272794
-2999.04 10333.19 14433.45 4292272794
-2990.1201 10335.78 14433.45 4292272794
-2984.6001 10346.43 14430.7 4292272794
-2971.48 10330.68 14425.74 4292272794
-2962.78 10326.53 14417.16 4292272794
-2956.3601 10330.29 14419.64 4292272794
-3028.5 10386.36 14482.55 4292272794
-3016.4199 10370.8 14458.03 4292272794
-3004.4099 10351.69 14436.17 4292272794
-2994.27 10350.11 14431.8 4292272794
-2976.3601 10347.66 14427.78 4292272794
-2966.6499 10340 14414.32 4292272794
-2959.46 10341.12 14413.12 4292272794
-3032.9399 10401.58 14482.05 4292272794
-3018.05 10376.41 14444.18 4292272794
-3008.5801 10366.08 14434.59 4292272794
-2998.1599 10363.58 14428.94 4292272794
-2988.4299 10359.71 14426.12 4292272794
-2980.6799 10362.66 14425.61 4292272794
-2971.52 10356.97 14416.35 4292272794
-2963.3201 10354.59 14410.26 4292272794
-3037.1299 10415.95 14480.34 4292272794
-3019.9299 10382.87 14431.52 4292272794
-3012.49 10379.56 14431.71 4292272794
-3003.79 10383.02 14432.91 4292272794
-2993.8501 10378.48 14430.61 4292272794
-2983.8101 10373.55 14419.13 4292272794
-2976.1499 10373.1 14417.17 4292272794
-3050.3701 10431.56 14483.57 4292272794
-3033.6499 10403.99 14442.06 4292272794
-3025.3899 10401.65 14435.98 4292272794
-3019.47 10403.59 14431.94 4292272794
-3006.9199 10393.85 14426.33 4292272794
-2997.49 10391.1 14426.52 4292272794
-2988.95 10391.41 14422.33 4292272794
-2979.76 10385.71 14413.08 4292272794
-3053.8 10443.28 14478.15 4292272794
-3030.8401 10420.38 14440.34 4292272794
-3021.5901 10410.9 14431.98 4292272794
-3012.8899 10418.24 14426.63 4292272794
-3005.52 10418.93 14421.91 4292272794
-2993.0701 10405.76 14420.63 4292272794
-2982.5601 10395.47 14403.59 4292272794
-3056.3999 10452.21 14467.41 4292272794
-3041.7 10431.63 14435.69 4292272794
-3034.26 10432.15 14435 4292272794
-3026.22 10426.84 14431.01 4292272794
-3014.99 10425.49 14426.58 4292272794
-3010.6699 10436.81 14425.05 4292272794
-2995.6899 10414.85 14411.64 4292272794
-2981.8799 10396.87 14383.58 4292272794
-3057 10454.23 14448.54 4292272794
-3046.1599 10446.92 14435.21 4292272794
-3037.3799 10446.59 14431.53 4292272794
-3028.6101 10438.83 14425.6 4292272794
-3019.6599 10441.64 14427.32 4292272794
-2999.8201 10429.2 14409.92 4292272794
-2983.72 10403.28 14370.93 4292272794
-3058.6299 10459.8 14434.64 4292272794
-3049.3201 10457.75 14428.58 4292272794
-3042.3201 10463.61 14433.44 4292272794
-3032.77 10453.18 14423.85 4292272794
-3022.8101 10452.53 14420.78 4292272794
-3014.01 10448.36 14417.99 4292272794
-3002.1101 10437.16 14397.91 4292272794
-3063.6001 10476.82 14436.53 4292272794
-3054.79 10476.5 14432.86 4292272794
-3045.47 10474.44 14426.8 4292272794
-3038.49 10472.87 14429.42 4292272794
-3027.6499 10469.29 14420.88 4292272794
-3017.8999 10461.85 14415.04 4292272794
-3067.55 10490.32 14433.54 4292272794
-3057.96 10487.39 14426.29 4292272794
-3050.4299 10491.47 14428.68 4292272794
-3041.6299 10483.7 14422.77 4292272794
-3032.0801 10484.58 14420.38 4292272794
-3020 10469.14 14403.54 4292272794
-3081.4299 10507.86 14440.79 4292272794
-3071.6899 10504.48 14430.02 4292272794
-3063.96 10507.96 14433.01 4292272794
-3053.3201 10501.43 14420.82 4292272794
-3045.8101 10498.12 14421.06 4292272794
-3034.7 10493.67 14411.33 4292272794
-3024.6499 10485.27 14392.71 4292272794
-3076.9399 10522.44 14433.13 4292272794
-3067.3701 10519.67 14427.53 4292272794
-3059.5 10522.68 14427 4292272794
-3049.9199 10512.28 14417.53 4292272794
-3038.8601 10508.03 14409.53 4292272794
-3102.97 10551.33 14456.24 4292272794
-3088.5 10531.99 14429.36 4292272794
-3081.3999 10537.69 14432.49 4292272794
-3073.3201 10540.05 14432.49 4292272794
-3062.9199 10534.44 14421.59 4292272794
-3054.3401 10527.53 14416.9 4292272794
-3040.71 10514.44 14396.8 4292272794
-3119.6799 10585.67 14487.01 4292272794
-3103.8101 10554.21 14438.62 4292272794
-3093.52 10549.09 14431.25 4292272794
-3085.3501 10551.2 14429.45 4292272794
-3076.48 10550.88 14425.79 4292272794
-3067.6201 10550.62 14422.21 4292272794
-3057.75 10539.28 14411.48 4292272794
-3045.3101 10530.34 14395.64 4292272794
-3118.4399 10581.47 14459.67 4292272794
-3107.53 10566.84 14434.37 4292272794
-3099.29 10568.77 14436.62 4292272794
-3089.3 10564.7 14426.39 4292272794
-3079.4199 10564.74 14422.81 4292272794
-3071.55 10564.13 14419.15 4292272794
-3061.9299 10553.66 14409.63 4292272794
-3045.8799 10532.3 14376.87 4292272794
-3118.77 10582.59 14439.66 4292272794
-3113.0801 10585.71 14438.6 4292272794
-3103 10581.4 14432.35 4292272794
-3093.97 10580.68 14425.25 4292272794
-3084.6499 10582.68 14425.78 4292272794
-3074.1699 10573.15 14409.97 4292272794
-3063.78 10560.05 14396.87 4292272794
-3043.8601 10525.31 14345.93 4292272794
-3138.24 10618.59 14470.48 4292272794
-3122.48 10595.17 14435.29 4292272794
-3116.01 10595.66 14430.66 4292272794
-3107.21 10595.79 14430.45 4292272794
-3099.22 10598.62 14428.2 4292272794
-3087.8 10593.51 14419.04 4292272794
-3078.3101 10587.38 14406.44 4292272794
-3138.8201 10620.57 14451.64 4292272794
-3126.99 10610.49 14434.65 4292272794
-3121.48 10614.28 14433.06 4292272794
-3112.4299 10613.59 14431.74 4292272794
-3102.6599 10610.39 14422.72 4292272794
-3092.53 10609.71 14419.6 4292272794
-3082.24 10600.88 14403.35 4292272794
-3139.9199 10624.28 14435.18 4292272794
-3132.48 10629.1 14437.03 4292272794
-3124.4099 10624.23 14425.1 4292272794
-3117.4399 10630.67 14433.46 4292272794
-3105.8501 10625.08 14420.79 4292272794
-3096.9099 10624.77 14417.14 4292272794
-3085.3799 10611.7 14396.6 4292272794
-3145.76 10644.05 14440.53 4292272794
-3137 10644.44 14436.35 4292272794
-3130.74 10645.75 14432.83 4292272794
-3120.6201 10641.5 14426.68 4292272794
-3110.3301 10640.41 14420.12 4292272794
-3101.3799 10640.1 14416.48 4292272794
-3163.6799 10674.54 14462.21 4292272794
-3148.47 10656.94 14436.12 4292272794
-3139.9299 10654.39 14428.37 4292272794
-3135.51 10661.97 14433.33 4292272794
-3125.6299 10658.59 14428.37 4292272794
-3114.54 10654.81 14418.17 4292272794
-3102.71 10644.66 14401.21 4292272794
-3164.25 10676.48 14443.35 4292272794
-3153.99 10675.63 14438.52 4292272794
-3144.97 10671.48 14430.04 4292272794
-3139.48 10675.5 14430.16 4292272794
-3130.1101 10673.88 14427.59 4292272794
-3119.47 10671.69 14418.13 4292272794
-3167.73 10688.21 14437.7 4292272794
-3157.99 10689.18 14435.33 4292272794
-3148.96 10685.02 14426.86 4292272794
-3143.46 10689.03 14426.99 4292272794
-3131.99 10680.27 14414.75 4292272794
-3123.9399 10686.98 14417.33 4292272794
-3186.54 10721.48 14463 4292272794
-3170.72 10702.04 14434.51 4292272794
-3162.51 10704.47 14434.51 4292272794
-3154.73 10704.61 14430.41 4292272794
-3150.54 10713.08 14436.55 4292272794
-3138.52 10702.55 14421.95 4292272794
-3186.8301 10722.47 14442.86 4292272794
-3175.46 10718.05 14433.22 4292272794
-3165.99 10716.24 14428.93 4292272794
-3159.5 10720.79 14430.77 4292272794
-3141.96 10714.27 14416.3 4292272794
-3190.8501 10736 14439.64 4292272794
-3179.73 10732.46 14431.18 4292272794
-3171.05 10733.35 14430.53 4292272794
-3165.0801 10739.73 14434.82 4292272794
-3155.8999 10735.13 14422.92 4292272794
-3145.4299 10729.92 14415.54 4292272794
-3206.8301 10763.28 14456.31 4292272794
-3194.0701 10746.84 14432.76 4292272794
-3185.3501 10751.41 14435.21 4292272794
-3177.1001 10753.85 14435.21 4292272794
-3165.9399 10746.4 14421.94 4292272794
-3159.3401 10746.84 14417.24 4292272794
-3149.9199 10745.22 14414.68 4292272794
-3208.1399 10767.67 14439.33 4292272794
-3199.8999 10766.45 14436.24 4292272794
-3189.6201 10765.83 14433.14 4292272794
-3180.3 10764.68 14428.33 4292272794
-3170.72 10762.64 14422.33 4292272794
-3163.8601 10762.2 14416.44 4292272794
-3211.8899 10780.26 14434.79 4292272794
-3203.6599 10779.11 14431.78 4292272794
-3193.8899 10780.26 14431.06 4292272794
-3166.98 10772.81 14407.83 4292272794
-3229.3501 10812.34 14459.18 4292272794
-3217.28 10798.35 14437.58 4292272794
-3208.48 10795.3 14432.05 4292272794
-3197.04 10790.87 14422.43 4292272794
-3188.5601 10792.65 14422.97 4292272794
-3178.8999 10790.39 14415.26 4292272794
-3172.28 10790.83 14410.55 4292272794
-3247.8601 10847.76 14480.81 4292272794
-3230.1699 10815.1 14441.45 4292272794
-3220.51 10809.18 14430.66 4292272794
-3214.3799 10815.16 14437.19 4292272794
-3202.1201 10808.01 14423.95 4292272794
-3194.4299 10812.51 14428.12 4292272794
-3182.3501 10802.1 14409.53 4292272794
-3249.77 10854.13 14467.86 4292272794
-3232.8799 10824.16 14432.15 4292272794
-3226.4299 10829.04 14435.78 4292272794
-3218.4099 10828.71 14433.88 4292272794
-3207.74 10826.99 14427.89 4292272794
-3196.76 10820.41 14415.84 4292272794
-3187.9399 10821.08 14413.48 4292272794
-3251.1399 10858.71 14452.55 4292272794
-3238.2 10841.97 14433.08 4292272794
-3230.73 10843.48 14433.63 4292272794
-3201.8501 10837.62 14417.41 4292272794
-3190.3301 10829.18 14402.93 4292272794
-3243.3301 10859.13 14434.54 4292272794
-3236.04 10861.31 14434.54 4292272794
-3226.3999 10855.59 14425.49 4292272794
-3216.8401 10857.71 14426.03 4292272794
-3205.8501 10851.17 14414.08 4292272794
-3192.73 10837.34 14392.45 4292272794
-3251.0701 10858.5 14429.46 4292272794
-3247.6599 10873.64 14432.44 4292272794
-3239.8101 10873.97 14430 4292272794
-3230.75 10874.01 14428.19 4292272794
-3220.8601 10871.26 14422.68 4292272794
-3209.8601 10864.72 14410.73 4292272794
-3193.46 10839.8 14373.01 4292272794
-3275.1001 10904.47 14451.48 4292272794
-3262.4399 10896.45 14437.1 4292272794
-3251.71 10887.19 14429.07 4292272794
-3244.9299 10891.15 14431.43 4292272794
-3236.6399 10893.86 14433.15 4292272794
-3225.6201 10887.32 14421.21 4292272794
-3213.3201 10876.44 14404.94 4292272794
-3267.03 10911.79 14436.07 4292272794
-3254.98 10901.95 14426.87 4292272794
-3248.71 10903.82 14426.87 4292272794
-3239.6001 10903.81 14424.98 4292272794
-3228.8201 10898.15 14414.22 4292272794
-3276.9299 10910.58 14436.78 4292272794
-3271.9099 10928.08 14436.27 4292272794
-3260.6399 10920.91 14430.61 4292272794
-3252.2 10915.54 14421.04 4292272794
-3244.8999 10921.66 14425.82 4292272794
-3233.3899 10913.55 14413.26 4292272794
-3298.0601 10954.23 14468.91 4292272794
-3280.74 10923.25 14432.19 4292272794
-3265.1699 10936.09 14427.9 4292272794
-3258.6101 10937.08 14426.73 4292272794
-3248.3999 10933.44 14420.06 4292272794
-3235.26 10919.86 14400.29 4292272794
-3298.05 10954.2 14447.51 4292272794
-3285.6499 10943.42 14437.08 4292272794
-3275.3701 10939.64 14428.77 4292272794
-3270.04 10952.4 14428.08 4292272794
-3262.1101 10948.8 14420.87 4292272794
-3253.25 10949.74 14420.24 4292272794
-3318.1499 10994.25 14469.04 4292272794
-3298.8601 10956.89 14429.72 4292272794
-3295.1699 10975.15 14436.22 4292272794
-3284.03 10968.56 14424.24 4292272794
-3274.3601 10966.86 14425.81 4292272794
-3266.4199 10963.26 14418.6 4292272794
-3255.9299 10958.79 14410.85 4292272794
-3318.5 10999.22 14465.18 4292272794
-3307.28 10984.86 14433.86 4292272794
-3290 10988.5 14429.16 4292272794
-3279.76 10984.96 14428.3 4292272794
-3271.54 10980.47 14419.93 4292272794
-3259.97 10972.37 14407.39 4292272794
-3334.1599 11024.38 14475.53 4292272794
-3317.3201 10995.3 14437.27 4292272794
-3309.21 10991.29 14432.35 4292272794
-3298.6299 10986.64 14428.6 4292272794
-3294.6201 11003.93 14428.1 4292272794
-3283.28 10996.76 14422.47 4292272794
-3273.97 10988.63 14409.33 4292272794
-3336.8999 11033.44 14466.07 4292272794
-3320.5901 11006.13 14430.19 4292272794
-3314.3301 11008.27 14431.91 4292272794
-3303.26 11002.06 14427.55 4292272794
-3299.49 11020.2 14428.13 4292272794
-3286.98 11009.14 14416.02 4292272794
-3279.9199 11008.59 14414.22 4292272794
-3338.25 11037.9 14450.59 4292272794
-3325.78 11023.35 14431.45 4292272794
-3319.51 11025.49 14433.18 4292272794
-3308.4299 11019.28 14428.83 4292272794
-3303.48 11033.54 14422.89 4292272794
-3293.21 11030.02 14422.05 4292272794
-3281.2 11016.74 14401.81 4292272794
-3339.3401 11041.51 14434.02 4292272794
-3331.24 11041.46 14433.87 4292272794
-3323.6001 11039.07 14429.66 4292272794
-3317.6699 11050.09 14426.56 4292272794
-3308.6399 11050.77 14424.14 4292272794
-3295.9099 11039.06 14412.6 4292272794
-3359.1499 11080.17 14466.16 4292272794
-3344.47 11058.44 14433.44 4292272794
-3335.3401 11055.05 14430.34 4292272794
-3328.79 11056.3 14430.89 4292272794
-3311.9299 11065.64 14421.85 4292272794
-3300.23 11053.53 14410.25 4292272794
-3349.4099 11074.78 14433.48 4292272794
-3341.03 11073.9 14432.25 4292272794
-3334.53 11075.39 14434.53 4292272794
-3324.98 11074.43 14425.68 4292272794
-3303.48 11064.42 14403.2 4292272794
-3354.3501 11091.12 14433.5 4292272794
-3345.9399 11090.19 14432.19 4292272794
-3338.8301 11089.65 14430.41 4292272794
-3327.6699 11083.37 14426.01 4292272794
-3318.1299 11086.33 14416.2 4292272794
-3366.75 11105.21 14433.5 4292272794
-3358.1899 11103.81 14428.75 4292272794
-3349.23 11101.08 14425.11 4292272794
-3342.6499 11102.34 14425.66 4292272794
-3333.4099 11102.5 14429.6 4292272794
-3319.79 11091.87 14413.48 4292272794
-3387.27 11138.28 14456.13 4292272794
-3370.5901 11117.9 14428.74 4292272794
-3364.51 11124.72 14434.66 4292272794
-3354.71 11119.23 14427.44 4292272794
-3347.8401 11119.59 14426.83 4292272794
-3336.3899 11112.43 14421.27 4292272794
-3322.4099 11100.65 14402.25 4292272794
-3388.8799 11143.59 14441.76 4292272794
-3376.9299 11138.82 14434.63 4292272794
-3369.1699 11140.12 14433.38 4292272794
-3358.54 11131.92 14422.67 4292272794
-3352.48 11134.99 14425.56 4292272794
-3339.3 11122.12 14411.2 4292272794
-3391.3601 11151.72 14431.05 4292272794
-3380.76 11151.46 14429.76 4292272794
-3373.8101 11159.34 14435.19 4292272794
-3364.49 11151.65 14425.57 4292272794
-3355.23 11148.01 14420.77 4292272794
-3344.1899 11138.42 14411.09 4292272794
-3396.8799 11169.89 14433.31 4292272794
-3385.45 11166.92 14428.53 4292272794
-3376.8101 11169.27 14426.8 4292272794
-3369.4299 11168.02 14425.51 4292272794
-3359.3201 11161.61 14417.14 4292272794
-3348 11151.11 14406.3 4292272794
-3401.55 11189.12 14435.08 4292272794
-3392.28 11189.43 14434.96 4292272794
-3380.9199 11182.87 14423.15 4292272794
-3373.26 11180.72 14420.69 4292272794
-3364.99 11180.45 14418.85 4292272794
-3353.1899 11168.37 14407.41 4292272794
-3414.3 11200.17 14437.15 4292272794
-3405.3999 11201.76 14430.16 4292272794
-3396.3999 11203.04 14431.29 4292272794
-3386.99 11202.93 14427.79 4292272794
-3378.74 11198.9 14422.93 4292272794
-3368.55 11192.25 14412.84 4292272794
-3425.8799 11214.99 14434.74 4292272794
-3417.8999 11211.97 14431.12 4292272794
-3410.1001 11217.23 14428.88 4292272794
-3400.53 11216.65 14427.6 4292272794
-3390.8101 11215.57 14422.87 4292272794
-3383.6101 11215.04 14421.1 4292272794
-3372.3701 11204.95 14408 4292272794
-3430.3101 11229.5 14432.2 4292272794
-3424.22 11232.7 14435.16 4292272794
-3415.6299 11235.43 14431.07 4292272794
-3404.6499 11230.25 14423.9 4292272794
-3395.22 11230.14 14420.41 4292272794
-3387.1599 11226.79 14414.99 4292272794
-3453.3101 11277.71 14475.85 4292272794
-3436.0901 11248.42 14433.89 4292272794
-3428.6399 11247.22 14432.6 4292272794
