# .PCD v0.7 - Point Cloud Data file format
VERSION 0.7
FIELDS x y z rgb
SIZE 4 4 4 4
TYPE F F F U
COUNT 1 1 1 1
WIDTH 1230
HEIGHT 1
VIEWPOINT 0 0 0 1 0 0 0
POINTS 1230
DATA ascii
-1906.1 8818.7695 14032.41 4282941457
-1894.53 8830.8203 14033.65 4282941457
-1881.36 8827.1699 14026.78 4282941457
-1874.8 8829.5898 14029.82 4282941457
-1868.05 8831.1699 14031.52 4282941457
-1861.25 8832.46 14029.82 4282941457
-1855.05 8828.1904 14024.29 4282941457
-1848.58 8835.2598 14031.52 4282941457
-1842.37 8835.1797 14032.38 4282941457
-1836.4399 8840.6904 14031.48 4282941457
-1830.28 8840.7803 14034.12 4282941457
-1824.41 8842.3496 14030.22 4282941457
-1816.9301 8840.3096 14030.69 4282941457
-1809.71 8839.5898 14030.29 4282941457
-1796.87 8837.2695 14024.25 4282941457
-1792.25 8844.9404 14034.51 4282941457
-1777.45 8841.5498 14027.71 4282941457
-1771.8101 8844.1904 14028.54 4282941457
-1767.66 8849.8896 14034.51 4282941457
-1760.33 8848.5303 14027.25 4282941457
-1753.47 8853.9404 14031.95 4282941457
-1746.39 8853.8301 14031.12 4282941457
-1740.8 8856.7803 14035.42 4282941457
-1734.49 8851.5898 14028.54 4282941457
-1727.16 8850.1299 14028.58 4282941457
-1722.63 8867.6201 14036.17 4282941457
-1712.78 8853.21 14031.97 4282941457
-1709.25 8866.8398 14031.04 4282941457
-1703.03 8866.6699 14031.91 4282941457
-1696.08 8867.1699 14030.65 4282941457
-1689.03 8867.1504 14031.52 4282941457
-1682.01 8867.3203 14026.78 4282941457
-1676.38 8870.0898 14029.39 4282941457
-1670.85 8873.4697 14031.48 4282941457
-1662.89 8873.3203 14028.96 4282941457
-1655.99 8878.79 14035.35 4282941457
-1649.9 8879.2402 14035.78 4282941457
-1642.77 8873.9902 14027.21 4282941457
-1629.26 8877.0898 14034.08 4282941457
-2051.9399 8800.5 14039.61 4282941457
-2043.8 8792.2197 14024.22 4282941457
-2042.26 8812.4199 14033.54 4282941457
-2032.01 8798.8896 14027.22 4282941457
-2023.9301 8798.54 14026.83 4282941457
-2019.29 8809.29 14037.04 4282941457
-2013.4 8806.8398 14035.74 4282941457
-2005.85 8804.8896 14027.22 4282941457
-2002.53 8821.5303 14033.54 4282941457
-1994.67 8818.25 14025.89 4282941457
-1982.2 8818.1104 14025.85 4282941457
-1976.35 8823.7002 14032.32 4282941457
-1967.72 8820.8604 14028.06 4282941457
-1962.3 8824.4199 14030.15 4282941457
-1956.13 8828.6299 14037.41 4282941457
-1942.84 8828.7305 14030.15 4282941457
-1935.4399 8831.3799 14033.19 4282941457
-1929.51 8832.6797 14033.19 4282941457
-1923.6 8834.1104 14034.88 4282941457
-1915.9 8831.3203 14034 4282941457
-1908.5699 8830.2197 14028.44 4282941457
-1901.27 8829.2305 14031.96 4282941457
-1891.76 8842.71 14030.11 4282941457
-1884.5 8841.9102 14028.02 4282941457
-1877.75 8843.4902 14029.72 4282941457
-1870.8199 8844.2695 14030.15 4282941457
-1864.35 8847.1504 14030.98 4282941457
-1859.16 8847.75 14033.19 4282941457
-1851.48 8849.1699 14031.41 4282941457
-1845.1 8848.29 14031.02 4282941457
-1839.67 8856.2402 14033.98 4282941457
-1832.65 8852.25 14030.15 4282941457
-1827.28 8856.2598 14030.11 4282941457
-1819.46 8852.6299 14028.06 4282941457
-1812.5601 8853.5098 14030.18 4282941457
-1806.8 8855.6602 14033.14 4282941457
-1800.7 8856.0801 14031.88 4282941457
-1794.4301 8855.6904 14029.35 4282941457
-1787.73 8853.1299 14026.35 4282941457
-1780.41 8856.2598 14028.88 4282941457
-1774.6 8858.1201 14028.44 4282941457
-1769.12 8861.6104 14030.62 4282941457
-1763.1 8862.46 14027.15 4282941457
-1755.91 8866.2803 14029.32 4282941457
-1749.14 8867.7598 14031.02 4282941457
-1742.74 8866.6904 14028.92 4282941457
-1736.6899 8867.3301 14031.05 4282941457
-1729.5 8866.6797 14032.35 4282941457
-1724.6801 8878.1797 14029.24 4282941457
-1711.91 8880.6504 14029.24 4282941457
-1706.1801 8883.0596 14035.67 4282941457
-1698.4399 8879.5303 14028.02 4282941457
-1690.54 8879.6602 14028.89 4282941457
-1686.03 8888.4805 14036.58 4282941457
-1678.77 8887.46 14034.41 4282941457
-1672.78 8888.4404 14032.71 4282941457
-1665.51 8887.2695 14028.85 4282941457
-1658.29 8891.1602 14032.71 4282941457
-1652.35 8892.4102 14034.41 4282941457
-1645.66 8889.5996 14029.72 4282941457
-1638.5 8889.0195 14032.7 4282941457
-1631.39 8888.6797 14030.18 4282941457
-1623.62 8889.5596 14032.31 4282941457
-1618.52 8895.3604 14038.27 4282941457
-2060.1699 8805.2598 14024.59 4282941457
-2053.8201 8808.5498 14028.81 4282941457
-2050.99 8823.1602 14029.2 4282941457
-2045.28 8825.4697 14032.16 4282941457
-2035.59 8814.3701 14029.72 4282941457
-2027.48 8813.96 14029.24 4282941457
-2022.11 8821.5498 14034.41 4282941457
-2016 8818.1797 14030.15 4282941457
-2009.89 8822.6201 14031.8 4282941457
-2005.3101 8833.7998 14030.9 4282941457
-1997.4399 8830.4697 14023.17 4282941457
-1990.74 8832.3301 14026.64 4282941457
-1985.87 8834.4004 14029.6 4282941457
-1979.64 8838.3496 14033.46 4282941457
-1971.36 8837.1602 14031.81 4282941457
-1965.08 8840.9102 14033.9 4282941457
-1957.97 8836.9004 14028.37 4282941457
-1952.65 8840.9697 14028.34 4282941457
-1945.37 8840.2197 14026.25 4282941457
-1938.84 8846.9004 14035.68 4282941457
-1931.87 8847.54 14034.33 4282941457
-1926.28 8846.4199 14032.24 4282941457
-1918.5699 8843.6201 14031.37 4282941457
-1911.4 8843.3096 14027.07 4282941457
-1907.4399 8857.8604 14033.07 4282941457
-1899.8 8855.3701 14028.29 4282941457
-1894.42 8859.2803 14033.94 4282941457
-1888.33 8859.8896 14034.37 4282941457
-1881.36 8860.4805 14033.03 4282941457
-1873.9399 8859.0098 14031.38 4282941457
-1866.9399 8859.46 14028.34 4282941457
-1861.74 8860.0098 14030.47 4282941457
-1854.23 8862.2803 14030.03 4282941457
-1847.33 8863.2402 14032.24 4282941457
-1841.89 8866.9102 14028.73 4282941457
-1835.37 8865.3701 14028.77 4282941457
-1830.67 8872.6699 14033.94 4282941457
-1822.3199 8866.54 14027.95 4282941457
-1815.58 8868.2305 14031.33 4282941457
-1809.95 8871.0898 14033.93 4282941457
-1803.53 8870 14031.76 4282941457
-1797.75 8872.0498 14033.11 4282941457
-1791.04 8869.4902 14030.11 4282941457
-1784.03 8874.2803 14035.24 4282941457
-1777.4 8872.0898 14028.41 4282941457
-1772.38 8877.9902 14034.37 4282941457
-1766.85 8881.29 14034.76 4282941457
-1758.51 8879.4199 14027.95 4282941457
-1752.0601 8882.5596 14032.24 4282941457
-1745.11 8883.2402 14032.67 4282941457
-1739.75 8882.9199 14033.54 4282941457
-1731.91 8879.0303 14029.72 4282941457
-1727.55 8892.9805 14030.46 4282941457
-1718 8880.1602 14028.81 4282941457
-1713.91 8895.6201 14030.46 4282941457
-1709.1801 8898.6699 14038.15 4282941457
-1701.27 8894.2803 14029.16 4282941457
-1693.51 8895.2695 14031.38 4282941457
-1687.21 8899.3496 14031.33 4282941457
-1680.96 8899.0195 14030.51 4282941457
-1674.8 8899.1602 14027.47 4282941457
-1667.27 8901.4004 14028.73 4282941457
-1661.02 8905.79 14032.16 4282941457
-1654.1 8906.5898 14034.37 4282941457
-1649.01 8907.6699 14036.07 4282941457
-1641.05 8902.8604 14030.89 4282941457
-1633.66 8901.0498 14027.54 4282941457
-1625.86 8901.7998 14027.98 4282941457
-1620.48 8906.1396 14033.11 4282941457
-1615.41 8907.3398 14036.5 4282941457
-1607.58 8903.0596 14029.28 4282941457
-1600.99 8905.6201 14028.41 4282941457
-1593.61 8908.7402 14032.63 4282941457
-1588.34 8913.7695 14037.41 4282941457
-1582.66 8911.5703 14033.97 4282941457
-1574.54 8910.4805 14030.11 4282941457
-1567.92 8912.9502 14036.54 4282941457
-1561.92 8913.8604 14034.84 4282941457
-1557.74 8925.3096 14033.5 4282941457
-1544.45 8924.8896 14035.24 4282941457
-1536.6899 8920.7803 14031.33 4282941457
-2076.71 8814.9297 14021.43 4282941457
-2071.5 8823.1504 14033.46 4282941457
-2063.78 8820.6699 14026.99 4282941457
-2057.4299 8824.0303 14031.29 4282941457
-2054.02 8836.21 14027.81 4282941457
-2047.71 8835.9502 14025.21 4282941457
-2039.16 8829.8496 14032.2 4282941457
-2031.9399 8833.3301 14036.41 4282941457
-2024.87 8833.6299 14029.98 4282941457
-2018.61 8829.5898 14026.16 4282941457
-2013.6 8838.9102 14035.54 4282941457
-2008.98 8849.96 14032.93 4282941457
-2001.3101 8847.6104 14028.24 4282941457
-1994.05 8847.0303 14027.85 4282941457
-1989 8848.3203 14029.55 4282941457
-1973.7 8847.6602 14024.86 4282941457
-1967.99 8853.9902 14032.5 4282941457
-1961.23 8851.6201 14029.59 4282941457
-1955.72 8854.9004 14028.29 4282941457
-1948.42 8854.0898 14026.12 4282941457
-1941.88 8860.7998 14035.54 4282941457
-1934.38 8859.0498 14030.41 4282941457
-1929.48 8861.0996 14033.37 4282941457
-1921.24 8855.9102 14028.72 4282941457
-1915.46 8862.0703 14034.67 4282941457
-1909.9 8869.3096 14029.07 4282941457
-1902.96 8870.1201 14029.5 4282941457
-1896.87 8870.7305 14029.94 4282941457
-1890.4399 8873.9697 14034.24 4282941457
-1884.14 8873.5898 14031.63 4282941457
-1876.17 8873.7598 14030.81 4282941457
-1870.02 8874.0801 14027.85 4282941457
-1864.84 8874.7803 14031.67 4282941457
-1856.98 8875.4404 14028.73 4282941457
-1850.04 8876.2197 14029.15 4282941457
-1843.9399 8881.0498 14028.68 4282941457
-1838.59 8880.9297 14031.25 4282941457
-1833.38 8885.79 14032.54 4282941457
-1825.85 8883.7197 14032.93 4282941457
-1818.41 8882.0596 14029.59 4282941457
-1812.3 8882.6201 14030.02 4282941457
-1806.83 8886.2305 14033.8 4282941457
-1800.54 8885.8398 14031.28 4282941457
-1793.35 8880.9805 14026.12 4282941457
-1785.6899 8882.5195 14026.12 4282941457
-1780.6801 8888.4697 14032.15 4282941457
-1774.98 8890.9902 14031.28 4282941457
-1768.99 8892.04 14029.59 4282941457
-1761.4 8894.0195 14027.38 4282941457
-1754.65 8895.71 14030.85 4282941457
-1747.85 8897.1904 14032.54 4282941457
-1741.52 8891.9697 14025.68 4282941457
-1735.24 8896.0801 14033.02 4282941457
-1730.11 8906.1299 14029.07 4282941457
-1720.39 8892.5098 14026.16 4282941457
-1716.29 8907.9697 14027.81 4282941457
-1711.21 8909.2402 14031.2 4282941457
-1703.92 8908.1504 14027.42 4282941457
-1695.83 8907.4404 14026.95 4282941457
-1690.33 8915.7695 14035.06 4282941457
-1683.91 8914.6396 14032.98 4282941457
-1677.4399 8913.1699 14027.42 4282941457
-1669.4301 8912.96 14024.82 4282941457
-1663.33 8918.1602 14029.5 4282941457
-1656.09 8917.3096 14029.11 4282941457
-1650.97 8918.2598 14029.11 4282941457
-1643.33 8915.2305 14028.24 4282941457
-1636.95 8918.9502 14032.11 4282941457
-1628.5601 8916.5703 14029.11 4282941457
-1622.6899 8918.3301 14028.68 4282941457
-1617.21 8917.2695 14029.98 4282941457
-1609.39 8918 14030.42 4282941457
-1604.09 8922.8604 14033.41 4282941457
-1596.12 8922.7803 14032.59 4282941457
-1590.4 8925.3096 14033.41 4282941457
-1585.72 8928.8203 14038.97 4282941457
-1576.87 8923.6699 14028.72 4282941457
-1569.67 8922.8799 14030.03 4282941457
-1563.52 8928.0098 14034.72 4282941457
-1559.9 8937.6602 14030.76 4282941457
-1553.79 8938.04 14031.2 4282941457
-1546.02 8933.9697 14027.38 4282941457
-1539.25 8935.6396 14032.54 4282941457
-1527.08 8931.5 14027.46 4282941457
-1520.88 8936.4502 14030.46 4282941457
-2079.7 8831.4404 14025.24 4282941457
-2074.9399 8837.79 14034.58 4282941457
-2067.97 8838.5801 14033.32 4282941457
-2060.6699 8837.9199 14031.24 4282941457
-2051.6799 8853.0801 14030.26 4282941457
-2034.2 8843.1602 14029.89 4282941457
-2027.87 8846.6904 14028.58 4282941457
-2022.52 8846.7305 14031.24 4282941457
-2015.48 8847.1504 14026.5 4282941457
-2011.4 8860.5898 14027.66 4282941457
-2003.72 8858.2402 14022.98 4282941457
-1997 8860.1104 14026.45 4282941457
-1992.48 8863.8301 14032.01 4282941457
-1985.6801 8865.3604 14032.01 4282941457
-1977.17 8863.1904 14027.31 4282941457
-1970.37 8864.7002 14027.31 4282941457
-1963.9399 8863.8604 14026.84 4282941457
-1958.96 8869.5703 14029.41 4282941457
-1951.48 8867.9902 14025.97 4282941457
-1944.54 8872.9102 14031.09 4282941457
-1931.46 8874.2402 14030.27 4282941457
-1924.25 8869.7998 14028.58 4282941457
-1917.42 8871.1396 14026.89 4282941457
-1912.24 8884.2402 14030.26 4282941457
-1906.64 8887.2598 14034.48 4282941457
-1899.64 8883.7002 14026.84 4282941457
-1893.0699 8886.2803 14031.57 4282941457
-1886.75 8885.9004 14028.97 4282941457
-1878.9399 8886.8701 14029.41 4282941457
-1873.12 8888.79 14028.97 4282941457
-1867.6 8887.9004 14030.27 4282941457
-1860.23 8890.96 14031.09 4282941457
-1852.9399 8890.1299 14029.01 4282941457
-1847.5 8898.2197 14033.65 4282941457
-1835.91 8898.0703 14029.79 4282941457
-1827.55 8892 14023.89 4282941457
-1821.1 8895.1904 14028.19 4282941457
-1814.14 8895.9199 14028.62 4282941457
-1810.61 8904.8203 14030.7 4282941457
-1805.12 8908.4297 14034.48 4282941457
-1795.3199 8895.1299 14026.07 4282941457
-1789.15 8899.75 14031.19 4282941457
-1783.12 8900.6201 14027.71 4282941457
-1778.84 8910.3398 14029.36 4282941457
-1772.41 8909.2305 14034.57 4282941457
-1764.98 8912.0801 14033.69 4282941457
-1757.21 8908.7197 14027.75 4282941457
-1750.72 8911.7998 14031.96 4282941457
-1744.74 8908.4199 14029.49 4282941457
-1737.01 8905.1797 14025.24 4282941457
-1732.13 8921.1104 14030.26 4282941457
-1723.09 8906.5195 14026.11 4282941457
-1719.9301 8926.8398 14035.38 4282941457
-1713.74 8922.4004 14029.79 4282941457
-1707.21 8925.3701 14032.39 4282941457
-1698.95 8923.8604 14030.67 4282941457
-1692.05 8924.8799 14027.28 4282941457
-1686.85 8930.21 14035.35 4282941457
-1680.49 8929.4102 14029.36 4282941457
-1673.25 8933.3096 14033.22 4282941457
-1666.24 8933.79 14031.96 4282941457
-1659.12 8933.5996 14031.14 4282941457
-1653.7 8933.04 14030.23 4282941457
-1646.22 8930.8701 14030.71 4282941457
-1639.25 8936.3496 14037.08 4282941457
-1631.5601 8933.0098 14032.84 4282941457
-1626.83 8941.0498 14031.96 4282941457
-1619.87 8931.9697 14029.49 4282941457
-1612.0699 8932.8398 14031.63 4282941457
-1605.46 8935.4004 14030.75 4282941457
-1598.89 8938.2402 14033.27 4282941457
-1593.01 8939.9697 14032.84 4282941457
-1587.49 8938.7598 14032.45 4282941457
-1579.34 8937.6602 14028.58 4282941457
-1572.13 8936.8799 14029.89 4282941457
-1566.37 8944.3301 14036.75 4282941457
-1562.49 8952.5195 14031.96 4282941457
-1556.37 8952.9004 14032.39 4282941457
-1549.16 8952.1201 14033.69 4282941457
-1541.08 8946.2402 14025.58 4282941457
-1534.95 8951.6904 14033.74 4282941457
-1530.04 8948.7695 14032.45 4282941457
-1523.53 8952.0703 14032.84 4282941457
-1516.61 8952.9102 14036.75 4282941457
-1509.8 8954.4004 14032.84 4282941457
-1498.26 8959.2695 14032.87 4282941457
-1492.0699 8964.5303 14031.96 4282941457
-2102.05 8846.4404 14023.3 4282941457
-2095.8999 8850.7695 14030.55 4282941457
-2091.9399 8856.7402 14029.28 4282941457
-2083.9099 8849.2998 14031.47 4282941457
-2076.8701 8846.0195 14025.53 4282941457
-2069.51 8845.1699 14021.67 4282941457
-2063.23 8852.7598 14032.35 4282941457
-2057.96 8853.1504 14031.09 4282941457
-2037.76 8858.6602 14032.35 4282941457
-2031.42 8862.1904 14031.04 4282941457
-2025.6899 8860.5898 14031.09 4282941457
-2019.5601 8865.04 14032.73 4282941457
-2014.92 8876.0996 14030.1 4282941457
-2006.5601 8874.7402 14026.68 4282941457
-2000.85 8877.21 14031.41 4282941457
-1995.0601 8875.2803 14027.98 4282941457
-1988.09 8880.0801 14031.41 4282941457
-1980.4399 8877.8604 14028.42 4282941457
-1974.17 8881.8203 14032.28 4282941457
-1965.96 8876.9902 14023.74 4282941457
-1961.6801 8881.8799 14026.72 4282941457
-1955.27 8889.25 14035.7 4282941457
-1948.12 8889.2402 14034.79 4282941457
-1940.78 8888.3398 14031.02 4282941457
-1934.3101 8887.3398 14028.85 4282941457
-1927.45 8884.5498 14029.78 4282941457
-1920.5601 8885.6904 14026.3 4282941457
-1908.9 8897.7803 14027.5 4282941457
-1903.14 8900.0498 14030.54 4282941457
-1896.55 8902.6396 14035.27 4282941457
-1889.03 8900.8398 14030.15 4282941457
-1881.72 8900 14027.98 4282941457
-1875.88 8901.9004 14027.55 4282941457
-1869.98 8903.5 14031.02 4282941457
-1863.46 8906.3896 14031.84 4282941457
-1855.33 8901.5996 14024.99 4282941457
-1849.6899 8908.7598 14026.68 4282941457
-1844.5 8909.5 14030.58 4282941457
-1838.9301 8912.71 14029.28 4282941457
-1830.55 8906.5898 14023.3 4282941457
-1824.11 8909.9199 14029.29 4282941457
-1817.8101 8913.9102 14034.84 4282941457
-1811.85 8910.9004 14028.47 4282941457
-1806.1899 8913.71 14030.99 4282941457
-1799.13 8913.9697 14033.64 4282941457
-1791.77 8912.75 14028.08 4282941457
-1785.22 8915.5898 14028.9 4282941457
-1780.72 8919.7305 14032.33 4282941457
-1774.02 8917.3301 14023.74 4282941457
-1767.26 8923.5801 14029.68 4282941457
-1759.97 8922.6699 14027.59 4282941457
-1753.47 8925.8096 14031.89 4282941457
-1747.3199 8921.5801 14028.08 4282941457
-1740.85 8924.8496 14034.07 4282941457
-1735 8935.8701 14031.36 4282941457
-1725.25 8922.2402 14028.49 4282941457
-1722.14 8938.3604 14031.36 4282941457
-1716.4301 8936.4199 14029.72 4282941457
-1710.04 8940.1396 14033.49 4282941457
-1701.16 8935.4404 14026.72 4282941457
-1695.02 8940.5098 14029.72 4282941457
-1689.01 8941.6396 14029.72 4282941457
-1683.58 8945.8398 14033.05 4282941457
-1675.25 8944.0303 14027.94 4282941457
-1668.55 8946.1699 14029.28 4282941457
-1662.17 8950.0498 14034.83 4282941457
-1656.14 8946.2197 14028.81 4282941457
-1648.79 8944.8496 14030.55 4282941457
-1641.23 8947.1299 14031.89 4282941457
-1635.24 8953.1504 14030.54 4282941457
-1628.09 8947.96 14030.99 4282941457
-1622.7 8947.5703 14031.86 4282941457
-1614.74 8947.6396 14032.73 4282941457
-1607.97 8949.4004 14030.6 4282941457
-1601.25 8951.4297 14031.86 4282941457
-1594.9301 8950.7598 14027.65 4282941457
-1588.97 8952.1104 14031.04 4282941457
-1581.67 8950.8604 14027.18 4282941457
-1574.46 8950.0801 14028.49 4282941457
-1568.6899 8957.54 14035.33 4282941457
-1564.9399 8966.5303 14031.8 4282941457
-1558.67 8966.1104 14030.98 4282941457
-1550.74 8961.25 14025.9 4282941457
-1543.78 8961.9199 14028.03 4282941457
-1536.9301 8963.2402 14029.73 4282941457
-1531.16 8960.5195 14028.52 4282941457
-1526.38 8974 14033.05 4282941457
-1518.01 8961.1904 14027.61 4282941457
-1513.34 8975.3799 14031.8 4282941457
-1505.67 8971.9102 14034.84 4282941457
-2113.26 8863.4004 14029.15 4282941457
-2106.8701 8866.7402 14033.36 4282941457
-2098.4299 8861.4297 14025.35 4282941457
-2092.3301 8862.1797 14025.78 4282941457
-2087.52 8864.6504 14032.21 4282941457
-2079.0801 8859.2695 14024.11 4282941457
-2074.23 8865.3398 14030.05 4282941457
-2065.71 8863.3799 14027.06 4282941457
-2059.3899 8863.1699 14024.55 4282941457
-2058.29 8881.5898 14031.18 4282941457
-2047.6899 8870.6699 14028.79 4282941457
-2040.95 8872.5195 14032.18 4282941457
-2035.16 8878.4902 14034.73 4282941457
-2029.24 8876.0996 14033.52 4282941457
-2022.91 8879.7598 14033.91 4282941457
-2018.62 8892.4199 14033.78 4282941457
-2010.21 8890.9199 14028.67 4282941457
-2004.16 8891.8896 14032.5 4282941457
-1991.37 8894.7598 14032.5 4282941457
-1983.1801 8890.1504 14025.73 4282941457
-1976.6899 8893.1201 14026.55 4282941457
-1969.75 8894.1201 14028.68 4282941457
-1964.92 8896.5596 14027.81 4282941457
-1957.79 8900.7002 14031.67 4282941457
-1950.1 8898.2998 14026.99 4282941457
-1943.8101 8902.2402 14030.85 4282941457
-1937.16 8900.4404 14027.43 4282941457
-1930.64 8899.2402 14030.87 4282941457
-1924.74 8905.0303 14024.43 4282941457
-1915.37 8898.7998 14029.67 4282941457
-1911.55 8914.3203 14031.18 4282941457
-1906.63 8916.4102 14034.22 4282941457
-1899.13 8914.7598 14030.8 4282941457
-1892.6801 8918.0098 14035.1 4282941457
-1884.3199 8912.3096 14025.29 4282941457
-1879.16 8917.4697 14029.98 4282941457
-1872.0601 8913.3799 14024.47 4282941457
-1865.36 8915.4697 14024.04 4282941457
-1859.25 8920.4297 14032.54 4282941457
-1852.09 8920.2803 14022.73 4282941457
-1847.9 8925.8896 14034.27 4282941457
-1841.97 8927.4404 14030.36 4282941457
-1833.41 8920.5098 14023.13 4282941457
-1826.8 8923.0498 14027.86 4282941457
-1820.3199 8926.25 14032.16 4282941457
-1814.84 8925.6396 14029.56 4282941457
-1809.03 8927.71 14030.9 4282941457
-1801.78 8927.1104 14032.21 4282941457
-1794.73 8927.5 14029.17 4282941457
-1789.23 8935.5996 14026.51 4282941457
-1783.5 8933.6797 14032.16 4282941457
-1776.91 8936.3604 14031.28 4282941457
-1770.1899 8938.3799 14030.85 4282941457
-1763.36 8939.8799 14032.54 4282941457
-1755.73 8937.3096 14027.86 4282941457
-1751.5601 8943.2598 14028.29 4282941457
-1743.42 8938.0098 14032.65 4282941457
-1728.42 8938.6602 14032.18 4282941457
-1719.42 8951.9902 14032.06 4282941457
-1710.9301 8949.4102 14025.69 4282941457
-1704.13 8951.0703 14029.15 4282941457
-1697.48 8953.4805 14026.51 4282941457
-1691.95 8957.2305 14032.06 4282941457
-1685.91 8958.2197 14030.36 4282941457
-1677.88 8958.0596 14027.85 4282941457
-1671.77 8963.4199 14034.22 4282941457
-1664.16 8960.7695 14029.54 4282941457
-1659.35 8963.5303 14033.84 4282941457
-1651.38 8958.8896 14030.46 4282941457
-1644.09 8962.7197 14034.24 4282941457
-1636.97 8962.6602 14035.11 4282941457
-1629.9301 8962.9697 14032.16 4282941457
-1625.09 8960.7598 14030.43 4282941457
-1617.42 8962.4902 14033.91 4282941457
-1611.88 8971.1504 14030.8 4282941457
-1603.76 8965.4902 14031.77 4282941457
-1598.8101 8972.5098 14027.85 4282941457
-1591.03 8963.7002 14027.1 4282941457
-1584.88 8968.9902 14033.47 4282941457
-1578.05 8970.4805 14036.86 4282941457
-1570.29 8966.6699 14027.53 4282941457
-1567.53 8981.4004 14032.96 4282941457
-1560.67 8977.6602 14026.94 4282941457
-1554.16 8981.0098 14034.7 4282941457
-1546.05 8975.1299 14026.61 4282941457
-1540.29 8982.8604 14036.84 4282941457
-1533.55 8974.54 14028.35 4282941457
-1527.7 8981.7803 14033.42 4282941457
-1520.65 8976.7402 14028.35 4282941457
-1514.4 8981.7002 14031.34 4282941457
-1507.62 8983.5195 14030.9 4282941457
-2116.1699 8875.5898 14026.37 4282941457
-2103.05 8880.9502 14034.14 4282941457
-2097.51 8884.1396 14038.43 4282941457
-2090.97 8879.29 14033.29 4282941457
-2082.72 8874.7598 14026.54 4282941457
-2076.3501 8874.3701 14022.24 4282941457
-2069.7 8880.5195 14032.09 4282941457
-2062.6101 8877.0303 14024.37 4282941457
-2061.1299 8893.8604 14028.48 4282941457
-2051.27 8886.1797 14031.21 4282941457
-2043.41 8883.2002 14026.97 4282941457
-2038.72 8894.0098 14037.15 4282941457
-2030.97 8887.5801 14027.79 4282941457
-2025.66 8891.8496 14029.43 4282941457
-2020.85 8902.2598 14027.22 4282941457
-2013.72 8906.4502 14031.08 4282941457
-2007.45 8906.4805 14031.96 4282941457
-2001.99 8906.1396 14031.04 4282941457
-1993.77 8905.4697 14027.27 4282941457
-1986.46 8904.8301 14026.81 4282941457
-1980.49 8910.25 14031.48 4282941457
-1973.01 8908.8604 14029.84 4282941457
-1967.8199 8909.6602 14026.37 4282941457
-1961.03 8915.4502 14032.82 4282941457
-1953.6801 8914.6396 14030.66 4282941457
-1946.5 8914.54 14028.15 4282941457
-1940.55 8915.9902 14029.84 4282941457
-1933.8101 8913.8604 14030.34 4282941457
-1926.23 8911.9004 14023.44 4282941457
-1918.72 8914.3604 14032.09 4282941457
-1914.1899 8926.6396 14028.48 4282941457
-1908.5699 8925.4805 14026.4 4282941457
-1901.59 8926.2803 14026.84 4282941457
-1894.5601 8926.8799 14025.5 4282941457
-1887.79 8928.6797 14028.97 4282941457
-1881.25 8927.3496 14023.42 4282941457
-1875.83 8931.3496 14030.66 4282941457
-1868.78 8931.8496 14027.71 4282941457
-1861.99 8933.5596 14031.1 4282941457
-1855.65 8937.4697 14027.66 4282941457
-1849.41 8937.5498 14030.22 4282941457
-1845.02 8942.2305 14031.52 4282941457
-1836.29 8934.5 14023.03 4282941457
-1829.99 8938.6504 14030.28 4282941457
-1823.3 8940.8496 14031.54 4282941457
-1818.1801 8942.04 14033.23 4282941457
-1812.1801 8943.2598 14033.23 4282941457
-1804.89 8942.5195 14032.85 4282941457
-1798.9301 8948.3701 14028.1 4282941457
-1790.33 8941.0801 14024.78 4282941457
-1785.64 8944.3701 14026.86 4282941457
-1773.11 8953.1396 14031.92 4282941457
-1765.26 8954.0098 14032.36 4282941457
-1758.48 8951.2695 14027.68 4282941457
-1753.39 8952.6104 14031.16 4282941457
-1746.14 8951.9697 14032.47 4282941457
-1737.52 8948.8896 14028.23 4282941457
-1731.14 8952.6797 14032.09 4282941457
-1724.33 8949.7197 14025.63 4282941457
-1722.59 8968.4902 14035.81 4282941457
-1713.29 8961.7695 14022.99 4282941457
-1706.79 8965.04 14028.97 4282941457
-1700.91 8971.5898 14032.77 4282941457
-1694.75 8972.0703 14033.21 4282941457
-1688.86 8973.8701 14032.77 4282941457
-1680.8 8973.6602 14030.17 4282941457
-1674.2 8976.46 14031.08 4282941457
-1666.91 8975.5596 14030.61 4282941457
-1662.09 8978.3398 14034.9 4282941457
-1654.23 8974.3496 14031.1 4282941457
-1646.67 8976.7803 14034.14 4282941457
-1639.09 8974.2402 14031.16 4282941457
-1633.23 8981.0996 14038.43 4282941457
-1628.03 8981.8701 14029.36 4282941457
-1620.0699 8977.1602 14033.29 4282941457
-1613.27 8978.9199 14031.16 4282941457
-1607.36 8985.5898 14029.36 4282941457
-1599.92 8978.7598 14027.3 4282941457
-1594.36 8982.4502 14032.85 4282941457
-1587.03 8981.2002 14029 4282941457
-1579.65 8979.6201 14029.05 4282941457
-1573.17 8983.1504 14031.21 4282941457
-1569.6899 8993.7598 14030.17 4282941457
-1563.54 8994.1504 14030.61 4282941457
-1556.27 8993.2197 14030.22 4282941457
-1547.9 8990.96 14029.02 4282941457
-1542.42 8995.2803 14034.14 4282941457
-1536.37 8991.0303 14032.03 4282941457
-1529.53 8992.54 14028.12 4282941457
-1523.4399 8993.2305 14032.03 4282941457
-1517.02 8997.2002 14031.98 4282941457
-2118.8999 8887.0498 14022.4 4282941457
-2106.3 8894.6602 14032.25 4282941457
-2099.8301 8893.96 14031.86 4282941457
-2093.6699 8890.7598 14029.33 4282941457
-2085.9399 8888.4697 14024.65 4282941457
-2080.25 8894.9004 14032.28 4282941457
-2072.7 8893.3896 14028.86 4282941457
-2070.3899 8910.4902 14033.04 4282941457
-2064.73 8909.3799 14030.88 4282941457
-2054.8501 8901.7002 14033.62 4282941457
-2047.5 8900.9697 14031.46 4282941457
-2042.92 8912.3398 14032.18 4282941457
-2034.7 8903.9004 14031.46 4282941457
-2028.84 8905.7803 14029.33 4282941457
-2025.27 8921.7002 14034.29 4282941457
-2016.3101 8917.8799 14027.02 4282941457
-2010.03 8917.9297 14027.89 4282941457
-2004.45 8921.0703 14032.18 4282941457
-1997.4301 8921.8096 14030.93 4282941457
-1990.4399 8922.6797 14031.37 4282941457
-1983.95 8925.7998 14033.88 4282941457
-1975.74 8921.1602 14027.13 4282941457
-1971.76 8927.5195 14030.93 4282941457
-1963.74 8927.7598 14030.11 4282941457
-1956.5601 8927.75 14029.21 4282941457
-1949.71 8929.25 14029.21 4282941457
-1943.5699 8929.9004 14029.65 4282941457
-1938.36 8934.8301 14030.93 4282941457
-1929.59 8927.46 14025.85 4282941457
-1924.01 8938.9404 14026.58 4282941457
-1917.36 8941.4102 14029.62 4282941457
-1911.91 8941.0703 14028.79 4282941457
-1904.91 8941.8701 14029.23 4282941457
-1897.87 8942.4697 14027.89 4282941457
-1891.25 8945.0703 14032.62 4282941457
-1884.5 8947.0303 14030.49 4282941457
-1878.77 8945.3398 14030.55 4282941457
-1872.55 8949.8398 14033.88 4282941457
-1865.38 8949.8096 14033.06 4282941457
-1859.0601 8953.8799 14031.31 4282941457
-1852.3101 8951.54 14030.11 4282941457
-1847.74 8955.3799 14030.05 4282941457
-1840.49 8954.96 14033.06 4282941457
-1832.8199 8952.4502 14028.39 4282941457
-1825.8199 8953.1904 14028.83 4282941457
-1821 8955.9004 14031.43 4282941457
-1814.8101 8956.2598 14030.09 4282941457
-1808.48 8960.29 14028.33 4282941457
-1800.51 8956.25 14030.14 4282941457
-1793.9399 8959.0996 14030.96 4282941457
-1789.05 8961.4502 14030.09 4282941457
-1782.47 8964.3301 14030.99 4282941457
-1775.03 8967.3301 14031.81 4282941457
-1767.53 8965.5703 14028.39 4282941457
-1761.39 8966.0898 14028.83 4282941457
-1756.3 8967.4404 14032.3 4282941457
-1748.6801 8965 14029.33 4282941457
-1742.79 8976.0303 14026.58 4282941457
-1734.29 8968.9805 14034.06 4282941457
-1730.2 8980.1904 14029.18 4282941457
-1725.09 8981.4805 14032.56 4282941457
-1716.4399 8978.2305 14026.64 4282941457
-1710.2 8982.96 14033.44 4282941457
-1703.11 8983.1797 14028.79 4282941457
-1697.1 8984.46 14030.49 4282941457
-1683.12 8986.0498 14027.45 4282941457
-1676.66 8989.6504 14029.62 4282941457
-1669.37 8988.8203 14029.23 4282941457
-1663.92 8988.2598 14028.33 4282941457
-1657.27 8990.8203 14034.76 4282941457
-1648.91 8988.9697 14029.65 4282941457
-1641.17 8985.6299 14025.41 4282941457
-1635 8990.8301 14030.09 4282941457
-1629.62 8990.6396 14032.74 4282941457
-1622.3 8989.5596 14030.58 4282941457
-1615.79 8992.9297 14030.96 4282941457
-1608.63 8992.7002 14030.14 4282941457
-1602.42 8992.7695 14027.11 4282941457
-1598.26 9004.4404 14034.78 4282941457
-1591.0601 9003.9902 14032.18 4282941457
-1582.7 8996.96 14034.06 4282941457
-1575.63 8997.1699 14031.02 4282941457
-1572.26 9008.5 14029.62 4282941457
-1565.99 9008.2402 14030.49 4282941457
-1557.28 9004.1201 14024.91 4282941457
-1550.1801 9004.1797 14027.57 4282941457
-1544.55 9007.6904 14031.43 4282941457
-1539.6801 9010.3799 14028.33 4282941457
-1531.9301 9006.6201 14028.01 4282941457
-1518.97 9008.8096 14028.01 4282941457
-2130.0801 8903.6699 14024.73 4282941457
-2123.3701 8905.7803 14029.9 4282941457
-2108.8101 8905.2695 14026.92 4282941457
-2103.1001 8907.8203 14031.66 4282941457
-2098.9299 8913.1104 14030.71 4282941457
-2089.95 8905.5703 14029.56 4282941457
-2083.8799 8910.4102 14034.67 4282941457
-2076.8899 8911.3496 14035.11 4282941457
-2057.49 8913.1201 14029.56 4282941457
-2050.5 8914.04 14030 4282941457
-2044.5 8919.2305 14031.28 4282941457
-2038.0601 8918.6299 14032.6 4282941457
-2033.5699 8926.5596 14028.2 4282941457
-2027.5 8931.5303 14027.71 4282941457
-2019.46 8931.8398 14026.88 4282941457
-2013.54 8933.4697 14030.28 4282941457
-2006.84 8931.71 14026.86 4282941457
-2000.54 8935.7002 14030.71 4282941457
-1993.36 8935.7803 14029.9 4282941457
-1987.23 8940.5596 14035.01 4282941457
-1979.54 8938.3096 14032.03 4282941457
-1974.83 8941.4199 14030.71 4282941457
-1966.79 8941.6602 14029.9 4282941457
-1959.97 8943.3096 14031.59 4282941457
-1952.54 8942.21 14026.05 4282941457
-1946.05 8941.2598 14023.97 4282941457
-1939.85 8941.6797 14029.94 4282941457
-1933.49 8945.4805 14032.1 4282941457
-1927.36 8954.5098 14028.97 4282941457
-1920 8953.7402 14026.88 4282941457
-1914.33 8952.3896 14023.03 4282941457
-1908.22 8957.4004 14031.53 4282941457
-1902.04 8962.1201 14036.64 4282941457
-1894 8958.0498 14029.46 4282941457
-1887.6 8961.7695 14031.53 4282941457
-1881.86 8960.0703 14031.59 4282941457
-1875.47 8963.8301 14033.75 4282941457
-1868.63 8965.4102 14035.45 4282941457
-1861.62 8966.21 14028.58 4282941457
-1855.36 8966.29 14031.15 4282941457
-1850.45 8968.5303 14028.58 4282941457
-1843.7 8970.5703 14035.45 4282941457
-1835.35 8964.79 14025.67 4282941457
-1829 8968.7998 14031.22 4282941457
-1809.71 8966.4199 14026.17 4282941457
-1803.3199 8970.21 14029.94 4282941457
-1796.74 8973.1104 14030.84 4282941457
-1792.5 8978.7305 14035.07 4282941457
-1785.9 8981.5703 14035.89 4282941457
-1777.12 8977.8896 14024.79 4282941457
-1770.62 8981.2002 14030.78 4282941457
-1764.59 8982.3799 14030.78 4282941457
-1758.88 8980.6104 14030.84 4282941457
-1753.1 8987.6699 14032.41 4282941457
-1745.83 8991.6699 14028.97 4282941457
-1736.36 8979.6904 14028.74 4282941457
-1733.05 8994.9805 14030.22 4282941457
-1726.36 8988.1201 14020.88 4282941457
-1720.34 8998.6201 14034.94 4282941457
-1712.5601 8995.3398 14030.71 4282941457
-1705.61 8996.3604 14027.32 4282941457
-1699.89 8999.2598 14031.53 4282941457
-1693.95 9000.9199 14029.4 4282941457
-1686.21 9002.5195 14031.09 4282941457
-1679.4301 9004.4697 14030.65 4282941457
-1671.64 9001.0098 14024.73 4282941457
-1666.8 9003.7803 14029.02 4282941457
-1659.1 9000.7402 14028.18 4282941457
-1651.49 9003.0303 14029.52 4282941457
-1644.34 9002.9697 14030.4 4282941457
-1637.4 9004.0303 14028.62 4282941457
-1631.83 9002.8398 14028.24 4282941457
-1626.12 9010.6797 14031.15 4282941457
-1618.46 9007.7998 14032.1 4282941457
-1610.99 9005.9102 14028.68 4282941457
-1605.51 9010.1201 14032.1 4282941457
-1599.63 9012.1504 14035.05 4282941457
-1592 9009.29 14028.68 4282941457
-1585.03 9010.1797 14032.6 4282941457
-1578.23 9012.0596 14032.16 4282941457
-1574.86 9023.3496 14030.65 4282941457
-1569.12 9026.2197 14034.94 4282941457
-1559.85 9019.0098 14026.05 4282941457
-1553.16 9021.4902 14032.47 4282941457
-1547.1 9022.54 14032.47 4282941457
-1540.73 9016.5303 14026.17 4282941457
-1534.1801 9019.8398 14026.55 4282941457
-1529.11 9026.6699 14028.2 4282941457
-1522.1801 9027.8096 14035.51 4282941457
-2127.79 8924.3398 14035.59 4282941457
-2119.0901 8918.1602 14026.26 4282941457
-2113.6299 8925.6201 14036.92 4282941457
-2107.1101 8924.79 14034.84 4282941457
-2099.6299 8916.0801 14025.13 4282941457
-2093.78 8921.8799 14033.19 4282941457
-2088.1599 8928.7305 14029.67 4282941457
-2078.99 8920.3799 14027.27 4282941457
-2073.3799 8923.3701 14029.78 4282941457
-2070.9399 8936.2002 14027.47 4282941457
-2062.47 8934.7002 14029.67 4282941457
-2053.3301 8926.3203 14027.27 4282941457
-2046.64 8932.5098 14029.8 4282941457
-2040.86 8930.8604 14029.78 4282941457
-2035.36 8934.4004 14030.24 4282941457
-2030.35 8948.0898 14031.32 4282941457
-2022.97 8947.3301 14029.17 4282941457
-2016.3101 8945.7695 14027.54 4282941457
-2010.16 8946.46 14027.98 4282941457
-2004.17 8951.9199 14032.64 4282941457
-1996.28 8948.8799 14028.42 4282941457
-1989.24 8949.6104 14027.16 4282941457
-1982.41 8951.2695 14028.86 4282941457
-1978.45 8957.79 14034.34 4282941457
-1969.85 8955.5703 14029.67 4282941457
-1962.8101 8956.2803 14028.42 4282941457
-1956.65 8961.04 14033.52 4282941457
-1949.61 8957.6299 14027.6 4282941457
-1935.61 8959.4404 14030.18 4282941457
-1923.16 8968.4697 14027.91 4282941457
-1918.7 8972.8398 14033.02 4282941457
-1911.37 8972.1904 14032.64 4282941457
-1904.83 8975.2598 14035.15 4282941457
-1896.77 8971.1904 14027.98 4282941457
-1890.55 8975.7598 14031.39 4282941457
-1885.79 8978.79 14037.38 4282941457
-1878.39 8977.7695 14033.52 4282941457
-1871.02 8976.8896 14031.37 4282941457
-1864.49 8980.0098 14026.66 4282941457
-1858.22 8980.0898 14029.23 4282941457
-1853.84 8984.9404 14032.2 4282941457
-1845.52 8979.4502 14025.82 4282941457
-1838.01 8982.1904 14030.55 4282941457
-1832.01 8983.5596 14032.25 4282941457
-1825.65 8983.1797 14029.74 4282941457
-1819.78 8985.21 14030.99 4282941457
-1806.59 8986.5 14031.87 4282941457
-1799.34 8986.0703 14027.58 4282941457
-1794.79 8990.2305 14030.99 4282941457
-1787.54 8989.7998 14026.7 4282941457
-1780.04 8992.6602 14025.82 4282941457
-1772.85 8992.5596 14025.01 4282941457
-1767.33 8996.3604 14030.55 4282941457
-1761.9301 8996.2002 14033.13 4282941457
-1754.61 8995.4199 14032.75 4282941457
-1748.55 9005.6699 14028.73 4282941457
-1739.38 8995.3301 14031.12 4282941457
-1735.92 9009.8398 14031.32 4282941457
-1730.15 9007.8496 14029.61 4282941457
-1722.23 9008.5303 14028.35 4282941457
-1715.22 9009.3301 14030.49 4282941457
-1702.08 9010.8398 14027.54 4282941457
-1696.4301 9014.1104 14027.91 4282941457
-1689.27 9018.8496 14033.02 4282941457
-1680.73 9016.21 14026.66 4282941457
-1674.09 9014.21 14023.25 4282941457
-1668.0699 9015.4697 14024.94 4282941457
-1661.84 9015.6104 14029.3 4282941457
-1654.2 9017.8496 14030.55 4282941457
-1646.4399 9014.5 14026.33 4282941457
-1640.55 9021.3799 14033.59 4282941457
-1634.8199 9019.3301 14031.87 4282941457
-1627.52 9018.4404 14031.5 4282941457
-1620.98 9021.8203 14031.87 4282941457
-1613.05 9022.4102 14030.62 4282941457
-1608.42 9026.4805 14034.03 4282941457
-1601.25 9021.2803 14027.21 4282941457
-1594.47 9023.3096 14028.46 4282941457
-1586.34 9017.6396 14022.16 4282941457
-1581.9 9033.0098 14030.93 4282941457
-1577.3101 9037.4404 14030.51 4282941457
-1570.27 9037.9805 14030.95 4282941457
-1562.71 9035.5195 14029.67 4282941457
-1555.84 9037.0596 14033.15 4282941457
-1549.36 9035.7695 14030.99 4282941457
-1543.55 9033.0498 14029.8 4282941457
-1536.4301 9033.0801 14025.07 4282941457
-1530.3 9033.7305 14028.9 4282941457
-2143.1001 8935.3896 14035.44 4282941457
-2137.6899 8935.4805 14030.71 4282941457
-2131.49 8939.8496 14037.95 4282941457
-2123.3201 8935.9805 14030.78 4282941457
-2115.5801 8933.8398 14027.81 4282941457
-2110.2 8937.8604 14033.35 4282941457
-2103.8201 8933.8496 14029.57 4282941457
-2098.26 8941 14029.44 4282941457
-2089.23 8933.3096 14026.6 4282941457
-2083.3701 8939.1504 14034.74 4282941457
-2076.6101 8937.2998 14029.64 4282941457
-2074.25 8954.3799 14033.67 4282941457
-2064.4299 8943.1904 14031.26 4282941457
-2055.3 8938.7998 14024.53 4282941457
-2050 8947.2002 14030.83 4282941457
-2044.59 8947.2002 14033.4 4282941457
-2038.89 8949.8896 14032.52 4282941457
-2033.51 8961.9805 14031.08 4282941457
-2026.63 8963.54 14031.08 4282941457
-2018.95 8961.5195 14029.89 4282941457
-2014.53 8965.9404 14035 4282941457
-2006.55 8962.5596 14027.3 4282941457
-1999.21 8961.9805 14026.93 4282941457
-1992.6899 8965.1201 14029.44 4282941457
-1985.67 8965.9902 14029.88 4282941457
-1981.34 8970.9004 14032.84 4282941457
-1972.53 8967.7402 14025.23 4282941457
-1965.86 8970.2002 14028.18 4282941457
-1959.15 8972.5 14029.44 4282941457
-1953.1801 8974.0195 14031.22 4282941457
-1945.54 8967.9199 14026.98 4282941457
-1938.98 8975.0303 14032.54 4282941457
-1931.03 8971.5596 14032.15 4282941457
-1926.6801 8984.8701 14031.52 4282941457
-1921.6801 8986.7803 14032.78 4282941457
-1914.48 8986.79 14031.96 4282941457
-1906.75 8984.3203 14027.3 4282941457
-1899.72 8985.1201 14027.74 4282941457
-1893.13 8988.04 14028.55 4282941457
-1887.87 8988.6699 14030.78 4282941457
-1881.28 8991.5801 14031.59 4282941457
-1874.62 8994.1699 14036.32 4282941457
-1867.38 8993.96 14026.42 4282941457
-1861.78 8997.3096 14034.1 4282941457
-1856.52 8997.9502 14029.01 4282941457
-1847.87 8995.2402 14028.18 4282941457
-1841.04 8997 14031.66 4282941457
-1834.6899 8996.7197 14030.76 4282941457
-1828.98 8999.6104 14033.35 4282941457
-1815.51 8995.1396 14026.98 4282941457
-1808.54 9000.6396 14031.64 4282941457
-1802.3101 9000.9004 14028.69 4282941457
-1797.58 9004.21 14030.76 4282941457
-1790.62 9005.29 14027.37 4282941457
-1783.63 9010.7695 14032.03 4282941457
-1776.58 9011.4805 14032.47 4282941457
-1769.92 9009.5303 14029.06 4282941457
-1764 9006.75 14026.09 4282941457
-1756.87 9006.9805 14028.75 4282941457
-1741.9301 9008.5098 14029.64 4282941457
-1738.77 9024.6396 14032.33 4282941457
-1732.37 9019.4199 14025.6 4282941457
-1725.7 9026.6699 14034.55 4282941457
-1718.05 9024.1904 14031.59 4282941457
-1711.35 9026.6797 14029.01 4282941457
-1705.3199 9027.9697 14030.71 4282941457
-1699.38 9029.7803 14030.27 4282941457
-1691.4399 9030.4297 14029.01 4282941457
-1683.65 9031.8896 14029.01 4282941457
-1671.5699 9034.4297 14032.4 4282941457
-1664.42 9029.6201 14029.06 4282941457
-1656.77 9031.8604 14030.32 4282941457
-1649.3101 9030.1904 14028.69 4282941457
-1642.65 9032.9199 14029.5 4282941457
-1637.52 9034.21 14032.98 4282941457
-1629.45 9029.1797 14026.16 4282941457
-1623.5 9035.8496 14031.64 4282941457
-1615.27 9034.8203 14027.87 4282941457
-1609.61 9038.1797 14029.94 4282941457
-1604.48 9039.4502 14033.42 4282941457
-1596.38 9039.1602 14030.83 4282941457
-1589.53 9035.7598 14028.3 4282941457
-1583.41 9041.5898 14032.52 4282941457
-1578.47 9049.1396 14026.42 4282941457
-1572.85 9052.8301 14031.96 4282941457
-1565.5699 9052.04 14033.29 4282941457
-1557.6899 9047.8096 14027.81 4282941457
-1552.03 9051.3398 14031.66 4282941457
-1545.53 9044.6104 14025.72 4282941457
-1539.8 9052.8896 14033.79 4282941457
-1532.9399 9049.2998 14029.57 4282941457
-2152.8999 8949.7695 14033.86 4282941457
-2146.77 8950.7002 14036 4282941457
-2140.73 8952 14034.3 4282941457
-2133.8301 8949.6699 14031.34 4282941457
-2125.6499 8945.79 14024.17 4282941457
-2119.25 8949.3604 14030.15 4282941457
-2112.8899 8949.2695 14029.26 4282941457
-2106.71 8946.1201 14026.82 4282941457
-2099.73 8947.2305 14028.95 4282941457
-2093.02 8949.4902 14028.51 4282941457
-2087.6399 8957.4805 14029.71 4282941457
-2079.6599 8950.3896 14028.13 4282941457
-2077.0901 8966.6201 14030.82 4282941457
-2066.7 8953.0098 14024.66 4282941457
-2053 8960.29 14029.32 4282941457
-2048.78 8965.5498 14028.37 4282941457
-2040.64 8961.5801 14028.51 4282941457
-2036.86 8976.7402 14032.16 4282941457
-2029.97 8978.2998 14032.16 4282941457
-2021.9 8974.6201 14028.39 4282941457
-2016.74 8975.7803 14028.39 4282941457
-2010.4 8979.7305 14032.15 4282941457
-2002.3101 8975.8896 14026.68 4282941457
-1995.9399 8979.7402 14028.83 4282941457
-1988.76 8979.9502 14029.71 4282941457
-1984.61 8985.6797 14033.93 4282941457
-1976.49 8985.7305 14031.34 4282941457
-1969.63 8987.3799 14033.03 4282941457
-1962.73 8988.8896 14033.03 4282941457
-1956.74 8990.4102 14034.81 4282941457
-1949.24 8984.96 14030.14 4282941457
-1941.46 8986.4902 14028.44 4282941457
-1933.33 8982.2402 14026.79 4282941457
-1929.99 9000.3203 14032.16 4282941457
-1924.67 9000.7695 14032.6 4282941457
-1917.1 8999.1201 14029.2 4282941457
-1910.37 9001.3896 14030.45 4282941457
-1902.85 8999.9297 14028.83 4282941457
-1896.22 9002.7002 14027.94 4282941457
-1890.63 9001.8096 14029.27 4282941457
-1883.17 9004.9102 14030.08 4282941457
-1876.6801 9004.04 14029.71 4282941457
-1870.79 9010.3896 14030.01 4282941457
-1863.49 9005.5801 14024.98 4282941457
-1858.53 9012.0801 14028.76 4282941457
-1851.24 9011.6699 14031.78 4282941457
-1843.9 9010.9697 14031.41 4282941457
-1838.04 9013.1504 14034.36 4282941457
-1831.5 9011.9697 14030.59 4282941457
-1825.27 9012.3398 14029.26 4282941457
-1818.96 9012.2402 14030.14 4282941457
-1810.86 9012.1904 14027.63 4282941457
-1805.27 9015.6797 14029.7 4282941457
-1801.04 9021.5098 14035.7 4282941457
-1793.73 9020.9297 14029.71 4282941457
-1785.4301 9019.8604 14024.17 4282941457
-1778.85 9022.9902 14028.37 4282941457
-1772.84 9024.3799 14030.15 4282941457
-1767.22 9023.21 14029.7 4282941457
-1759.91 9022.5801 14031.02 4282941457
-1751.87 9022.79 14031.89 4282941457
-1746.14 9030.2695 14029.71 4282941457
-1734.53 9035.25 14027.94 4282941457
-1727.9 9038.1904 14030.45 4282941457
-1720.41 9036.5801 14028.83 4282941457
-1714.48 9043.1602 14032.6 4282941457
-1707.8101 9041.1699 14029.2 4282941457
-1701.87 9042.9805 14028.76 4282941457
-1694.83 9048.54 14035.11 4282941457
-1686.39 9046.5596 14028.31 4282941457
-1680.0601 9046.3701 14029.2 4282941457
-1674.33 9049.3096 14033.49 4282941457
-1667 9043.6299 14028.81 4282941457
-1659.05 9044.2598 14027.56 4282941457
-1652.02 9045.0098 14029.7 4282941457
-1645.36 9047.7998 14030.59 4282941457
-1639.61 9045.75 14028.88 4282941457
-1632.58 9046.4902 14031.02 4282941457
-1625.85 9048.9199 14028.44 4282941457
-1617.78 9048.8496 14027.63 4282941457
-1611.97 9051.4004 14028.44 4282941457
-1606.53 9051 14029.32 4282941457
-1599.13 9054.7197 14031.48 4282941457
-1592.65 9058.5996 14029.71 4282941457
-1585.15 9051.5303 14025.92 4282941457
-1581.21 9064.8496 14028.76 4282941457
-1574.72 9063.5801 14026.61 4282941457
-1567.4 9062.6396 14026.24 4282941457
-1560.25 9062.6602 14028.81 4282941457
-1548.21 9060.3203 14028.07 4282941457
-1541.6 9063.5 14026.75 4282941457
-1535.05 9061.7305 14026.82 4282941457
-2148.54 8958.0596 14025.53 4282941457
-2144.05 8965.8701 14034.03 4282941457
-2136.9399 8962.7402 14029.82 4282941457
-2130.5 8966.1699 14034.1 4282941457
-2121.3701 8958.3203 14022.2 4282941457
-2116.5601 8964.7998 14031.58 4282941457
-2109.97 8960 14026.56 4282941457
-2103.52 8963.4102 14030.84 4282941457
-2095.5 8960.1104 14023.15 4282941457
-2089.4199 8965.1299 14029.94 4282941457
-2084.28 8970.3096 14025.6 4282941457
-2081.0701 8983.8203 14035.73 4282941457
-2070.47 8969.3604 14028.25 4282941457
-2062.0701 8968.2402 14026.62 4282941457
-2056.3401 8974.8398 14028.62 4282941457
-2044.88 8980.2002 14034.17 4282941457
-2032.5601 8989.7402 14028.05 4282941457
-2025 8988.3799 14026.42 4282941457
-2021.16 8995.4199 14037.06 4282941457
-2012.97 8991.2402 14028.12 4282941457
-2004.37 8989.1904 14025.16 4282941457
-1999.03 8993.6602 14028.56 4282941457
-1992.39 8996.3398 14033.29 4282941457
-1987.28 8997.79 14029.37 4282941457
-1979.55 8999.6504 14031.07 4282941457
-1970.74 8996.6201 14025.16 4282941457
-1966.5 9006.1504 14037.95 4282941457
-1958.89 9000.2598 14028.19 4282941457
-1951.9399 9001.54 14033.72 4282941457
-1945 9002.8896 14032.03 4282941457
-1938.21 9004.8896 14029.89 4282941457
-1932.62 9012.5996 14029.3 4282941457
-1926.95 9011.4404 14027.23 4282941457
-1920.6 9015.5303 14032.78 4282941457
-1913.6801 9017 14032.78 4282941457
-1905.8 9013.8701 14028.56 4282941457
-1898.8101 9014.9902 14025.09 4282941457
-1893.73 9016.5703 14030.26 4282941457
-1886.25 9019.6699 14031.07 4282941457
-1879.73 9018.6602 14029 4282941457
-1873.01 9021.0703 14024.64 4282941457
-1867.92 9026.96 14036.25 4282941457
-1861.76 9027.71 14031.08 4282941457
-1853.62 9023.2197 14027.75 4282941457
-1846.72 9024.79 14029.45 4282941457
-1840.37 9024.5596 14028.63 4282941457
-1833.97 9024.1299 14026.04 4282941457
-1828.12 9026.3604 14029.08 4282941457
-1821.62 9025.4102 14028.62 4282941457
-1814.16 9028.6396 14031.21 4282941457
-1808.24 9030.5195 14030.77 4282941457
-1802.4399 9033.0498 14029.89 4282941457
-1796.35 9034.1104 14028.19 4282941457
-1789.33 9039.5996 14032.85 4282941457
-1781.45 9036.1602 14026.85 4282941457
-1775.59 9038.3701 14029.89 4282941457
-1768.78 9035.7598 14026.93 4282941457
-1762.0699 9038.2695 14031.66 4282941457
-1756.45 9046.3496 14036.24 4282941457
-1746.99 9034.6904 14024.84 4282941457
-1742.33 9043.0996 14027.3 4282941457
-1737.8199 9052.3896 14031.08 4282941457
-1730.27 9050.5801 14027.68 4282941457
-1722.21 9050.7402 14028.56 4282941457
-1716.36 9053.0703 14025.98 4282941457
-1709.13 9052.8604 14025.09 4282941457
-1703.48 9056.3398 14027.23 4282941457
-1697.15 9060.9404 14032.33 4282941457
-1689.15 9061.3896 14029.3 4282941457
-1683.28 9063.6797 14034.03 4282941457
-1676.77 9062.5303 14031.96 4282941457
-1669.45 9061.8203 14033.29 4282941457
-1662.08 9060.7598 14031.14 4282941457
-1653.84 9059.9102 14029.08 4282941457
-1647.91 9061.8301 14030.33 4282941457
-1642.15 9059.7803 14028.62 4282941457
-1634.64 9057.9404 14025.3 4282941457
-1628.67 9064.6201 14030.77 4282941457
-1620.88 9066.1699 14032.47 4282941457
-1614.47 9065.4404 14028.18 4282941457
-1609.14 9065.7002 14028.62 4282941457
-1601.75 9069.5703 14032.47 4282941457
-1594.3 9068.0098 14032.53 4282941457
-1587.61 9065.6201 14025.75 4282941457
-1584.5 9083.7305 14034.48 4282941457
-1578.03 9082.5996 14034.03 4282941457
-1570.83 9082.4805 14034.91 4282941457
-1562.67 9076.7598 14028.63 4282941457
-1556.5699 9077.8096 14028.63 4282941457
-1550.73 9075.04 14027.37 4282941457
-2158.3999 8972.6396 14025.7 4282941457
-2151.6001 8974.6396 14029.18 4282941457
-2146.6001 8976.5303 14028.73 4282941457
-2141.23 8980.7305 14035.97 4282941457
-2132.4399 8974.3301 14024.88 4282941457
-2126.75 8981.0303 14034.26 4282941457
-2119.6499 8977.8799 14030.05 4282941457
-2113.6299 8975.5303 14028.88 4282941457
-2106.3999 8975.6504 14027.97 4282941457
-2100.0901 8979.7197 14031.82 4282941457
-2092.47 8978.2197 14028.41 4282941457
-2089.54 8992.9102 14028.66 4282941457
-2083.53 8994.46 14030.35 4282941457
-2073.5 8982.46 14026.72 4282941457
-2065.78 8984.4004 14028.41 4282941457
-2059.53 8988.79 14028.43 4282941457
-2054.28 8989.6201 14032.26 4282941457
-2047.5 8991.6904 14030.13 4282941457
-2041.58 8997.5498 14030.95 4282941457
-2036.45 9006.9805 14032.95 4282941457
-2028.14 9002.29 14026.14 4282941457
-2022.99 9003.5996 14027.84 4282941457
-2016.28 9006.0098 14029.18 4282941457
-2007.99 9005.4297 14027.03 4282941457
-2002.3199 9008.4404 14029.62 4282941457
-1995.84 9011.9297 14035.6 4282941457
-1989.3199 9011.0996 14027.84 4282941457
-1982.45 9012.8301 14029.62 4282941457
-1974.16 9012.21 14027.47 4282941457
-1967.21 9013.5801 14025.78 4282941457
-1961.92 9014.2002 14027.92 4282941457
-1954.8 9014.7305 14032.28 4282941457
-1947.3 9013.5596 14026.65 4282941457
-1943.4 9029.0498 14033.75 4282941457
-1935.27 9024.9297 14026.51 4282941457
-1930.08 9026.04 14026.51 4282941457
-1923.4 9028.6797 14031.24 4282941457
-1917.34 9034.2402 14037.59 4282941457
-1908.72 9027.6797 14026.59 4282941457
-1902.28 9031.4697 14028.73 4282941457
-1897.01 9032.1904 14032.57 4282941457
-1889.02 9032.8701 14029.62 4282941457
-1882.12 9034.4697 14031.32 4282941457
-1876.26 9036.7002 14026.95 4282941457
-1869.78 9035.9805 14028.28 4282941457
-1864.47 9040.8799 14029.54 4282941457
-1856.83 9038.8604 14030.06 4282941457
-1849.76 9039.6201 14030.5 4282941457
-1843.22 9038.5303 14028.36 4282941457
-1836.64 9037.29 14024.51 4282941457
-1831.08 9041 14028.36 4282941457
-1823.95 9036.96 14024.59 4282941457
-1816.65 9041.0098 14028.43 4282941457
-1810.71 9042.8799 14027.99 4282941457
-1804.74 9044.5596 14025.77 4282941457
-1799.46 9049.7695 14030.5 4282941457
-1791.61 9051.1104 14028.73 4282941457
-1784.84 9053.3496 14030.06 4282941457
-1778.66 9054.0303 14032.2 4282941457
-1772.49 9054.71 14034.34 4282941457
-1764.3199 9049.7803 14027.54 4282941457
-1760.2 9065.7002 14032.5 4282941457
