# .PCD v0.7 - Point Cloud Data file format
VERSION 0.7
FIELDS x y z rgb
SIZE 4 4 4 4
TYPE F F F U
COUNT 1 1 1 1
WIDTH 1224
HEIGHT 1
VIEWPOINT 0 0 0 1 0 0 0
POINTS 1224
DATA ascii
-795.33002 7284.7402 14545.88 4294173232
-788.88 7270.9199 14517.21 4294173232
-781.32001 7253.0898 14480.42 4294173232
-774.08002 7237.96 14455.92 4294173232
-766.57001 7220.1499 14420.9 4294173232
-760.90002 7206.25 14373.4 4294173232
-841.33002 7321.9902 14596.42 4294173232
-837.59003 7338.98 14632.48 4294173232
-826.56 7336.04 14631.22 4294173232
-822.41998 7337.21 14630.86 4294173232
-815.79999 7328.9199 14616.57 4294173232
-807.35999 7310.5098 14574.97 4294173232
-800.81 7296.0498 14545.07 4294173232
-794.94 7287.6899 14525.61 4294173232
-788.67999 7269.02 14487.49 4294173232
-780.73999 7247.7202 14443.83 4294173232
-773.87 7236.0601 14412.53 4294173232
-766.71997 7221.5601 14396.22 4294173232
-761.40997 7211.0698 14357.29 4294173232
-845.12 7355 14634.31 4294173232
-837.91998 7341.9399 14612.26 4294173232
-831.20001 7332.9399 14596.55 4294173232
-828.28003 7351.29 14635.45 4294173232
-822.90002 7341.52 14613.32 4294173232
-815.19 7329.8501 14592.17 4294173232
-807.22998 7309.3101 14546.57 4294173232
-800.73999 7295.4502 14517.92 4294173232
-794.96002 7287.7998 14499.9 4294173232
-788.60999 7268.4302 14460.45 4294173232
-780.38 7244.3701 14409.68 4294173232
-773.94 7236.73 14401.88 4294173232
-766.51001 7219.5601 14354.55 4294173232
-760.53998 7202.8398 14315.31 4294173232
-854.45001 7349.1499 14611.04 4294173232
-852.65997 7370.7798 14661.8 4294173232
-840.83002 7373.6899 14649.14 4294173232
-834.87 7365.3198 14634.86 4294173232
-828.14001 7350.0698 14606.93 4294173232
-823.21997 7344.4199 14593.02 4294173232
-815.59003 7333.4502 14573.3 4294173232
-807.09003 7308.0298 14518.08 4294173232
-800.60999 7294.2002 14489.53 4294173232
-794.59003 7284.46 14467.41 4294173232
-788.14001 7270.5698 14438.78 4294173232
-780.31 7243.71 14382.67 4294173232
-773.42999 7231.9399 14366.67 4294173232
-766.58002 7220.2202 14342.22 4294173232
-760.39001 7201.4399 14285.31 4294173232
-855.90997 7361.6499 14609.82 4294173232
-847.37 7380.79 14633.18 4294173232
-841.78998 7382.1099 14638 4294173232
-835.51001 7370.96 14619.99 4294173232
-828.92999 7357.0898 14594.83 4294173232
-823.31 7345.2202 14568.62 4294173232
-815.59998 7333.5898 14545.87 4294173232
-806.64001 7304.0298 14482.56 4294173232
-799.85999 7287.4102 14450.28 4294173232
-794 7279.0298 14429.15 4294173232
-787.33002 7263.0801 14398.2 4294173232
-779.76001 7245.1099 14359.68 4294173232
-773.65002 7233.98 14343.42 4294173232
-766.28003 7217.4302 14311.13 4294173232
-854.14001 7383.5801 14621.07 4294173232
-849.13 7396.0601 14637.38 4294173232
-842.12 7385 14617.68 4294173232
-835.28003 7375.29 14600.65 4294173232
-827.85999 7353.8599 14562.32 4294173232
-823.16998 7343.9702 14540.21 4294173232
-814.84998 7326.7798 14506.51 4294173232
-806.79999 7305.4102 14459.54 4294173232
-799.15997 7287.5 14424.59 4294173232
-794.29999 7281.77 14408.91 4294173232
-787.16998 7261.6699 14368.08 4294173232
-779.46002 7242.3501 14328.68 4294173232
-773.57001 7233.25 14316.44 4294173232
-765.97998 7214.6001 14280.05 4294173232
-859.60999 7393.5298 14619.19 4294173232
-855.10999 7391.8999 14623.65 4294173232
-848.97998 7394.79 14608.85 4294173232
-842.52002 7388.54 14598.7 4294173232
-835.14001 7374.04 14572.23 4294173232
-827.64001 7351.8799 14530.79 4294173232
-822.47998 7344.1201 14512.79 4294173232
-814.46997 7323.3901 14474.03 4294173232
-806.41998 7301.9902 14427.07 4294173232
-798.47998 7281.27 14384.92 4294173232
-793.53998 7274.8301 14369.6 4294173232
-786.87 7258.8501 14336.98 4294173232
-779.52002 7242.9399 14304.37 4294173232
-772.34998 7228.3999 14281.26 4294173232
-862.42999 7424 14653.21 4294173232
-857.90997 7416.1001 14645.47 4294173232
-849.08002 7395.6001 14584.53 4294173232
-841.66998 7381.04 14557.98 4294173232
-834.84003 7371.3501 14541.06 4294173232
-827.40997 7349.8501 14500.97 4294173232
-821.94 7339.3198 14477.55 4294173232
-814.92999 7327.5498 14456.52 4294173232
-806.03998 7298.52 14394.61 4294173232
-799.29999 7288.79 14374.21 4294173232
-793.15997 7271.3198 14337.16 4294173232
-787.38 7263.5898 14320.86 4294173232
-779.72998 7244.8999 14281.14 4294173232
-863.08002 7429.6201 14638.31 4294173232
-857.14001 7415.6201 14618.36 4294173232
-849.32001 7397.71 14561.09 4294173232
-841.83002 7382.5 14533.32 4294173232
-834.69 7370.0298 14512.66 4294173232
-827.25 7348.4902 14472.59 4294173232
-822.56 7344.8198 14462.71 4294173232
-814.15997 7320.6001 14417.2 4294173232
-806.56 7303.29 14378.47 4294173232
-799.21997 7288.0298 14347.21 4294173232
-793.53003 7274.6899 14318.37 4294173232
-787.37 7263.46 14295.21 4294173232
-883.39001 7454.6802 14656.94 4294173232
-870.65997 7444.9702 14640.4 4294173232
-863.17999 7430.4399 14613.97 4294173232
-856.98999 7414.3398 14589.94 4294173232
-848.69 7392.21 14524.5 4294173232
-841.98999 7383.8701 14510.26 4294173232
-833.97998 7363.7798 14474.66 4294173232
-826.78003 7344.2998 14438.69 4294173232
-821.70001 7337.1699 14422.05 4294173232
-814.22998 7321.2202 14391.16 4294173232
-804.63 7292.2202 14329.39 4294173232
-798.97998 7285.8198 14317.46 4294173232
-793.03003 7276.6699 14295.04 4294173232
-885.37 7471.3999 14663.82 4294173232
-877.42999 7453.3701 14630.55 4294173232
-869.87 7444.4502 14613.29 4294173232
-863.34998 7431.8701 14590.87 4294173232
-856.83002 7413 14559.73 4294173232
-849 7394.96 14504.2 4294173232
-840.81 7379.7998 14476.44 4294173232
-833.82001 7362.3701 14446.28 4294173232
-826.78003 7344.29 14413.08 4294173232
-821.53998 7335.73 14393.69 4294173232
-812.83002 7315 14353.28 4294173232
-805.38 7298.96 14317.26 4294173232
-798.58002 7282.2202 14285.04 4294173232
-886.19 7478.3799 14651.55 4294173232
-877.76001 7456.1899 14610.21 4294173232
-869.15002 7438.27 14575.35 4294173232
-862.95001 7428.46 14556.66 4294173232
-857 7414.4102 14536.75 4294173232
-848.67999 7392.1499 14473.05 4294173232
-841.03998 7381.8198 14454.82 4294173232
-833.65002 7360.8901 14416.13 4294173232
-826.76001 7344.1499 14385.61 4294173232
-821.28998 7333.5298 14362.23 4294173232
-813.51001 7321.1201 14339.89 4294173232
-805.35999 7298.8398 14291.7 4294173232
-885.63 7473.6001 14616.35 4294173232
-878.01001 7458.3101 14586.84 4294173232
-869.31 7439.6401 14550.57 4294173232
-863.03003 7429.1201 14532.25 4294173232
-856.75 7412.29 14506.93 4294173232
-848.20001 7394.2402 14451.43 4294173232
-839.84003 7371.3198 14408.76 4294173232
-833.32001 7358 14385.02 4294173232
-826.28003 7339.8701 14351.84 4294173232
-820.72998 7328.52 14327.04 4294173232
-813.64001 7322.3101 14316.9 4294173232
-893.76001 7493.0698 14628.17 4294173232
-885.63 7473.6201 14590.59 4294173232
-877.84998 7456.9399 14558.42 4294173232
-868.73999 7434.75 14515.31 4294173232
-862.29999 7422.8398 14494.34 4294173232
-856.19 7407.4102 14471.78 4294173232
-847.46997 7387.8999 14411.86 4294173232
-840.21997 7374.6401 14389.82 4294173232
-832.45001 7356.5698 14356.66 4294173232
-826.10999 7344.6499 14335.69 4294173232
-820.47998 7326.2798 14297.38 4294173232
-813.31 7319.3398 14285.82 4294173232
-898.82001 7498.8301 14618.04 4294173232
-892.78998 7491.0601 14598.31 4294173232
-885.15997 7475.77 14568.91 4294173232
-877.76001 7456.1802 14531.24 4294173232
-868.89001 7436.0898 14492.33 4294173232
-862.84998 7427.6299 14478.13 4294173232
-856.40997 7409.3599 14450.06 4294173232
-848.09003 7393.3101 14397 4294173232
-839.40997 7367.54 14348.94 4294173232
-832.90002 7360.5801 14339.16 4294173232
-825.53998 7339.5698 14300.51 4294173232
-820.45001 7332.3799 14283.9 4294173232
-926.14001 7495.5098 14588.88 4294173232
-906.12 7517.02 14634.04 4294173232
-898.82001 7498.8198 14592.27 4294173232
-892.38 7487.5698 14565.79 4294173232
-885.40002 7477.7998 14545.46 4294173232
-877.42999 7453.3599 14500.17 4294173232
-868.47998 7432.5098 14459.86 4294173232
-860.90997 7417.1401 14432.07 4294173232
-856.47998 7409.96 14425.78 4294173232
-847.75 7390.3398 14365.89 4294173232
-840.26001 7375.02 14338.18 4294173232
-832.47998 7356.8501 14306.66 4294173232
-825.42999 7338.6401 14273.53 4294173232
-935.42999 7523.2998 14618.6 4294173232
-928.46002 7514.2798 14599.69 4294173232
-906.53998 7520.4902 14613.31 4294173232
-899.07001 7500.8701 14570.59 4294173232
-892.21002 7486.1299 14537.37 4294173232
-884.89001 7473.5498 14511.63 4294173232
-877.03003 7456.1099 14479.86 4294173232
-868.85999 7435.8398 14440.89 4294173232
-860.97998 7417.71 14407.78 4294173232
-855.75 7409.8799 14398.38 4294173232
-846.45001 7378.96 14318.55 4294173232
-840.08002 7373.3599 14309.76 4294173232
-832.45001 7356.6401 14281.09 4294173232
-934.12 7512.7798 14570.81 4294173232
-926.32001 7538.5601 14625.07 4294173232
-906.45001 7519.75 14586.2 4294173232
-898.39001 7495.2002 14534 4294173232
-892.35999 7487.3999 14514.29 4294173232
-884.79999 7472.7402 14484.56 4294173232
-876.52002 7451.7598 14445.97 4294173232
-868.03003 7428.6699 14399.91 4294173232
-860.71002 7415.4102 14376.31 4294173232
-855.32001 7406.1602 14365.86 4294173232
-846.97998 7383.6001 14302.39 4294173232
-839.96997 7372.4102 14282.77 4294173232
-938.89001 7551.1699 14619.56 4294173232
-932.15002 7544.1899 14604.66 4294173232
-928.38 7555.3301 14630.15 4294173232
-915.47998 7539.8799 14599.38 4294173232
-905.76001 7514.0298 14537.58 4294173232
-898.96002 7499.9902 14516.06 4294173232
-891.84003 7483.0898 14478.79 4294173232
-884.94 7473.96 14461.5 4294173232
-876.01001 7447.3999 14410.5 4294173232
-867.45001 7429.9502 14376.97 4294173232
-861.08002 7418.5498 14345.37 4294173232
-855.38 7406.6602 14341.59 4294173232
-846.78998 7381.9502 14274.06 4294173232
-839.84998 7371.4199 14255.79 4294173232
-942.09998 7576.9702 14643.79 4294173232
-935.42999 7570.7202 14630.31 4294173232
-930.17999 7569.9399 14632.74 4294173232
-922.70001 7550.96 14586.31 4294173232
-914.78998 7534.1899 14562.78 4294173232
-905.91998 7515.3799 14526.61 4294173232
-897.54999 7494.3301 14479.5 4294173232
-892.40997 7487.8198 14462.55 4294173232
-883.91998 7465.3701 14419.55 4294173232
-876.14001 7448.5498 14387.45 4294173232
-866.60999 7422.73 14337.8 4294173232
-861.06 7418.4102 14331.69 4294173232
-854.53998 7399.3799 14302.35 4294173232
-950.09998 7593.7002 14646.68 4294173232
-942.85999 7588.9302 14641.04 4294173232
-937.06 7583.96 14630.23 4294173232
-929.56 7564.9399 14597.47 4294173232
-922.34998 7548.0498 14567.08 4294173232
-914.59998 7532.6401 14534.28 4294173232
-905.52002 7518.1201 14506.27 4294173232
-897.45001 7493.4502 14452.44 4294173232
-891.28998 7478.4702 14419.18 4294173232
-885.06 7474.9702 14411.12 4294173232
-876.10999 7448.2998 14361.76 4294173232
-866.82001 7424.5098 14316.11 4294173232
-860.46002 7413.2402 14296.62 4294173232
-854.98999 7403.29 14284.84 4294173232
-958.89001 7575.4502 14600.5 4294173232
-949.72998 7590.7998 14615.48 4294173232
-943.19 7591.6499 14620.66 4294173232
-937.40002 7586.6699 14609.85 4294173232
-929.97998 7568.3701 14578.52 4294173232
-922.33002 7547.96 14541.41 4294173232
-913.95001 7533.2998 14509.94 4294173232
-904.82001 7512.3198 14469.72 4294173232
-897.34003 7492.54 14425.39 4294173232
-891.42999 7479.6499 14396.22 4294173232
-883.78003 7464.1699 14365.12 4294173232
-875.75 7445.2002 14330.67 4294173232
-867.59998 7431.23 14304 4294173232
-860.01001 7409.3599 14264.13 4294173232
-964.94 7582.4199 14587.91 4294173232
-962.60999 7604.8301 14631.5 4294173232
-956.90002 7594.8701 14618.09 4294173232
-953.06 7617.3999 14641.06 4294173232
-943.60999 7595.0298 14599.91 4294173232
-935.45001 7576.77 14565.11 4294173232
-929.01001 7560.48 14537.86 4294173232
-921.53998 7541.4302 14503.43 4294173232
-913.58002 7530.29 14478.79 4294173232
-905.21997 7515.6001 14449.03 4294173232
-897.31 7492.2798 14399.68 4294173232
-891.47998 7480.0601 14371.85 4294173232
-884.25 7468.1099 14347.58 4294173232
-875.96002 7447 14309.06 4294173232
-867.32001 7428.8101 14274.35 4294173232
-970.20001 7623.75 14641.82 4294173232
-963.47998 7611.77 14619.26 4294173232
-959.69 7622.8999 14632.57 4294173232
-952.87 7615.8999 14612.61 4294173232
-943.95001 7597.7002 14579.52 4294173232
-935.42999 7576.6401 14539.43 4294173232
-929.25 7562.4102 14516.18 4294173232
-921.72998 7549.0601 14492.56 4294173232
-913.64001 7530.75 14452.69 4294173232
-904.51001 7509.71 14412.5 4294173232
-897.52002 7494.0601 14376.26 4294173232
-890.81 7480.5601 14345.88 4294173232
-883.08002 7464.3599 14315.17 4294173232
-875.66998 7444.5098 14277.63 4294173232
-966.5 7635.5801 14639.41 4294173232
-960.21997 7627.0801 14628.66 4294173232
-951.88 7607.98 14571.95 4294173232
-943.57001 7594.7002 14548.35 4294173232
-935.48999 7577.1201 14513.3 4294173232
-928.23999 7560.1499 14484.66 4294173232
-920.59003 7539.6802 14449.29 4294173232
-913.09003 7526.23 14418.82 4294173232
-904.56 7510.1099 14388.12 4294173232
-896.56 7486.02 14335.79 4294173232
-891.10999 7483.04 14325.59 4294173232
-883.45001 7467.5 14296.22 4294173232
-967.19 7641.0298 14622.62 4294173232
-961.26001 7635.3901 14619.06 4294173232
-952.47998 7612.7202 14553.95 4294173232
-943.90002 7597.3501 14528.07 4294173232
-935.28003 7575.4502 14484.81 4294173232
-928.81 7564.8398 14468.39 4294173232
-920.71997 7540.77 14424.53 4294173232
-913.04999 7525.9302 14393.11 4294173232
-903.92999 7504.8799 14353.04 4294173232
-896.84998 7488.4702 14315.5 4294173232
-890.89001 7481.23 14297.17 4294173232
-974.35999 7656.46 14626.17 4294173232
-967.59998 7650.1602 14614.42 4294173232
-960.71002 7631.0098 14583.52 4294173232
-951.64001 7611.8901 14526.85 4294173232
-942.28998 7584.3701 14477.99 4294173232
-934.90002 7572.3501 14453.67 4294173232
-928 7558.21 14430.54 4294173232
-921.38 7546.1602 14409.69 4294173232
-912.66998 7522.8101 14362.09 4294173232
-903.71002 7503.0801 14324.6 4294173232
-897.06 7490.21 14293.89 4294173232
-988.82001 7676 14637.47 4294173232
-982.65997 7674.6201 14631.7 4294173232
-974.70001 7659.1001 14605.76 4294173232
-966.95001 7645.0098 14579.17 4294173232
-960.77002 7631.4902 14559.07 4294173232
-951.42999 7610.1899 14498.35 4294173232
-942.59998 7586.8999 14457.64 4294173232
-935.03998 7573.4702 14430.68 4294173232
-928.21997 7560.02 14408.88 4294173232
-920.56 7539.4199 14371.77 4294173232
-912.37 7520.2998 14332.33 4294173232
-904.34003 7508.3398 14309.7 4294173232
-896.03998 7487.7402 14264.15 4294173232
-1004.15 7667.3501 14604.64 4294173232
-1000.11 7676.5098 14620.82 4294173232
-993.76001 7667.9399 14599.84 4294173232
-989.70001 7682.8599 14623.4 4294173232
-982.90002 7676.5601 14609.97 4294173232
-974.94 7661.02 14584.04 4294173232
-966.65002 7642.6899 14549.41 4294173232
-961.09998 7634.0801 14538.68 4294173232
-951.03003 7607.0601 14467.21 4294173232
-942.65002 7587.27 14431.54 4294173232
-935.42999 7576.6602 14411.67 4294173232
-927.21997 7551.8599 14368.31 4294173232
-919.90997 7534.1299 14336.69 4294173232
-912.40002 7520.5801 14306.28 4294173232
-903.78003 7503.6699 14274.29 4294173232
-1011.59 7678.4399 14605.21 4294173232
-1005.98 7681.3501 14605.88 4294173232
-1001.83 7695.5498 14631.41 4294173232
-998.22998 7702.4702 14640.12 4294173232
-991.32001 7695.4199 14621.89 4294173232
-982.87 7676.3301 14584.17 4294173232
-973.73999 7651.5698 14540.76 4294173232
-966.62 7642.4302 14523.63 4294173232
-960.53003 7629.5801 14504.88 4294173232
-950.90997 7606.02 14440.14 4294173232
-941.88 7587 14405.81 4294173232
-934.85999 7572.0498 14377.91 4294173232
-927.59998 7555 14349.32 4294173232
-920.28998 7537.2402 14317.71 4294173232
-912.69 7522.9702 14285.98 4294173232
-1003.75 7710.2598 14633.95 4294173232
-999.59003 7712.9102 14634.53 4294173232
-991.56 7697.3301 14600.15 4294173232
-982.73999 7675.3198 14556.97 4294173232
-973.33002 7654.23 14520.36 4294173232
-966.48999 7641.4302 14496.54 4294173232
-960.13 7626.4302 14473.73 4294173232
-950.85999 7605.6602 14414.41 4294173232
-941.47998 7583.8101 14374.79 4294173232
-934.10999 7565.9502 14339.74 4294173232
-927.20001 7551.71 14316.55 4294173232
-919.96997 7534.6401 14286.28 4294173232
-1005.02 7719.9902 14627.03 4294173232
-999.56 7712.6802 14608.72 4294173232
-991.07001 7693.52 14567.64 4294173232
-982.44 7672.9302 14527.21 4294173232
-972.84003 7650.3599 14487.89 4294173232
-966.44 7641.04 14469 4294173232
-960.35999 7628.2202 14452.04 4294173232
-950.71997 7604.54 14385.66 4294173232
-941.42999 7583.3799 14349.08 4294173232
-933.76001 7569.1299 14320.75 4294173232
-927.40997 7553.4102 14294.91 4294173232
-920.09003 7535.6001 14263.33 4294173232
-1028.37 7714.4102 14591.98 4294173232
-1023.02 7719.4902 14603.49 4294173232
-1019.08 7735.3101 14637 4294173232
-1012.77 7738.98 14638.9 4294173232
-1005.72 7725.4199 14611.99 4294173232
-999.06 7708.8599 14574.51 4294173232
-990.76001 7691.0698 14537.8 4294173232
-982.58002 7674 14504.09 4294173232
-972.88 7650.7002 14461.77 4294173232
-966.94 7644.96 14451.37 4294173232
-959.13 7624.3301 14417.81 4294173232
-949.77002 7596.96 14346.45 4294173232
-941.37 7582.9199 14323.38 4294173232
-933.53003 7567.25 14292.41 4294173232
-1020.92 7749.2798 14636.39 4294173232
-1013.39 7743.71 14620.83 4294173232
-1005.5 7723.7402 14583.54 4294173232
-999.02002 7708.5498 14548.72 4294173232
-991.35999 7695.7202 14519.76 4294173232
-981.97998 7675.1699 14479.37 4294173232
-972.65002 7648.8999 14433.37 4294173232
-965.81 7636.0098 14409.48 4294173232
-958.82001 7621.8101 14388.12 4294173232
-949.34998 7593.6201 14315.36 4294173232
-941.57001 7584.52 14299.96 4294173232
-933.28998 7565.2798 14263.99 4294173232
-1030.23 7773.8799 14655.59 4294173232
-1021.82 7756.1099 14623.98 4294173232
-1013.16 7741.9702 14592.28 4294173232
-1005.37 7722.6699 14554.63 4294173232
-998.51001 7704.6499 14516.24 4294173232
-990.02002 7691.1602 14485.87 4294173232
-981.01001 7667.6201 14440.11 4294173232
-973.23999 7653.48 14417.07 4294173232
-965.20001 7637.1099 14386.49 4294173232
-958.58002 7619.9102 14359.66 4294173232
-949.64001 7601.8198 14305.89 4294173232
-941.15002 7581.1299 14268.9 4294173232
-1036.54 7781.4199 14642.41 4294173232
-1029.91 7771.4502 14625.71 4294173232
-1021.79 7761.6201 14608.92 4294173232
-1012.74 7738.7798 14561.1 4294173232
-1005.69 7725.1699 14534.22 4294173232
-998.09003 7701.4102 14485.09 4294173232
-989.51001 7687.1899 14453.41 4294173232
-980.87 7666.48 14413.05 4294173232
-973.09003 7652.3301 14390.01 4294173232
-964.59998 7632.3301 14352.66 4294173232
-958.87 7622.2798 14339.33 4294173232
-949.39001 7599.8301 14277.47 4294173232
-1053.1899 7780.9702 14612.06 4294173232
-1042.9 7794.8701 14643.54 4294173232
-1037.55 7788.9902 14629.69 4294173232
-1030.05 7772.54 14602.54 4294173232
-1021.65 7760.5898 14581.79 4294173232
-1012.7 7738.4702 14535.4 4294173232
-1004.34 7714.7998 14489.68 4294173232
-997.58002 7703.2402 14463.38 4294173232
-989.27002 7685.3398 14425.02 4294173232
-980.71002 7665.2998 14385.99 4294173232
-972.65997 7648.98 14358.91 4294173232
-964.32001 7630.1201 14310.61 4294173232
-958.46002 7618.9399 14308.33 4294173232
-1059.02 7773.5498 14594.82 4294173232
-1056.34 7804.2598 14630.53 4294173232
-1050.55 7806.5298 14634.96 4294173232
-1043.8101 7801.6899 14631.1 4294173232
-1037.7 7790.1099 14606.59 4294173232
-1030.08 7772.75 14564.39 4294173232
-1021.23 7757.3701 14550.62 4294173232
-1012.62 7737.8501 14495.89 4294173232
-1004.81 7718.4102 14458.2 4294173232
-997.06 7699.2202 14430.93 4294173232
-989.95001 7690.6001 14410.02 4294173232
-981.02002 7667.6699 14365.64 4294173232
-971.96002 7643.4102 14322.08 4294173232
-964.82001 7634.1201 14304.93 4294173232
-958.65002 7620.48 14284.91 4294173232
-1070.3199 7817.29 14627.79 4294173232
-1062.67 7800.3799 14618.29 4294173232
-1058.53 7820.4102 14633.91 4294173232
-1051.76 7815.5498 14626.65 4294173232
-1044.34 7805.6699 14613.38 4294173232
-1038.3199 7794.7402 14590.11 4294173232
-1030.05 7772.5498 14550.64 4294173232
-1020.42 7751.2402 14514.09 4294173232
-1012.78 7739.04 14484.79 4294173232
-1004.14 7719.04 14447.57 4294173232
-997.17999 7700.1299 14406.13 4294173232
-989.40997 7686.4502 14375.81 4294173232
-980.48999 7663.5298 14331.54 4294173232
-972.06 7644.25 14299.02 4294173232
-964.39001 7630.6699 14273.86 4294173232
-958.66998 7620.6499 14260.64 4294173232
-1059.36 7826.5498 14620.22 4294173232
-1052.01 7817.3501 14604.88 4294173232
-1044.58 7807.46 14591.61 4294173232
-1037.98 7792.23 14560.35 4294173232
-1029.4399 7773.6499 14527.49 4294173232
-1020.93 7755.1099 14494.71 4294173232
-1011.68 7730.6699 14444.24 4294173232
-1004.35 7720.6499 14424.09 4294173232
-997.39001 7701.7798 14384.45 4294173232
-988.51001 7679.4502 14338.03 4294173232
-980.59998 7664.3701 14308.47 4294173232
-970.62 7638.7598 14264 4294173232
-1068.45 7842.7798 14647.25 4294173232
-1061.16 7839.8398 14619.91 4294173232
-1052.14 7818.3701 14581.7 4294173232
-1044.05 7803.48 14559.11 4294173232
-1037.64 7789.6401 14530.5 4294173232
-1029.1 7771.0801 14497.74 4294173232
-1019.99 7747.96 14444.85 4294173232
-1012.47 7736.6699 14430.62 4294173232
-1003.26 7712.2598 14383.65 4294173232
-997.13 7699.77 14355.99 4294173232
-988.62 7680.3301 14315.05 4294173232
-980.52002 7663.8101 14282.85 4294173232
-1070.26 7856.0898 14646.92 4294173232
-1061.01 7838.73 14592.76 4294173232
-1051.8 7815.8198 14551.94 4294173232
-1043.79 7801.5801 14530.59 4294173232
-1037.6801 7789.9302 14506.12 4294173232
-1029.13 7771.3101 14473.28 4294173232
-1020.05 7748.3901 14432.44 4294173232
-1011.09 7731.8901 14396.78 4294173232
-1003.28 7712.3999 14359.24 4294173232
-996.32001 7693.4702 14319.63 4294173232
-988.54999 7679.7202 14289.34 4294173232
-980.25 7661.71 14254.44 4294173232
-1082.0699 7869.3701 14640.62 4294173232
-1075.42 7860.1602 14630.48 4294173232
-1069.75 7857.9702 14623.42 4294173232
-1060.36 7833.9502 14558.86 4294173232
-1051.9301 7816.7798 14528.77 4294173232
-1044.02 7803.27 14507.14 4294173232
-1037.22 7786.4902 14473.19 4294173232
-1028.97 7770.0898 14446.2 4294173232
-1020.36 7750.73 14412.05 4294173232
-1011.3 7733.5 14375.09 4294173232
-1003.2 7711.8101 14333.51 4294173232
-996.60999 7695.73 14299.28 4294173232
-988.73999 7681.2402 14267.69 4294173232
-1089.0601 7875.4399 14631.72 4294173232
-1083.4 7879.0801 14633.59 4294173232
-1076.55 7868.3999 14620.73 4294173232
-1069.86 7858.8101 14588.25 4294173232
-1060.52 7840.7998 14544.8 4294173232
-1051.96 7816.98 14502.6 4294173232
-1043.47 7799.1602 14474.68 4294173232
-1036.79 7789 14452.87 4294173232
-1028.8 7768.8301 14419.12 4294173232
-1019.9 7747.2798 14380.95 4294173232
-1010.37 7726.4199 14337.32 4294173232
-1003.4 7713.3599 14311.84 4294173232
-995.96002 7690.7202 14265.5 4294173232
-1091.89 7895.9502 14644.71 4294173232
-1084.74 7888.7998 14626.55 4294173232
-1077.24 7873.5098 14591.86 4294173232
-1069.63 7857.1201 14571.77 4294173232
-1059.86 7835.9399 14510.92 4294173232
-1050.75 7813.6602 14471.46 4294173232
-1043.2 7797.1499 14446.19 4294173232
-1036.04 7783.3701 14417.71 4294173232
-1028.05 7763.1802 14383.97 4294173232
-1019.36 7748.9199 14357.56 4294173232
-1010.95 7730.8198 14319.31 4294173232
-1092.78 7907.96 14641.68 4294173232
-1084.6801 7888.3501 14600.72 4294173232
-1077.21 7873.27 14578.09 4294173232
-1070.0601 7860.2402 14552.63 4294173232
-1059.79 7835.4102 14485.13 4294173232
-1050.97 7815.2798 14449.72 4294173232
-1036.15 7784.1899 14394.59 4294173232
-1027.87 7761.8198 14355.22 4294173232
-1019.28 7748.29 14331.83 4294173232
-1011.15 7732.3398 14297.63 4294173232
-1100.2 7916.8501 14636.32 4294173232
-1092.51 7906.0298 14611.42 4294173232
-1083.91 7882.79 14565.5 4294173232
-1076.35 7866.9902 14541.57 4294173232
-1069.6 7856.8799 14521.56 4294173232
-1059.52 7833.4199 14456.72 4294173232
-1049.91 7807.46 14410.62 4294173232
-1035.6899 7780.71 14363.58 4294173232
-1027.3 7757.5098 14322.74 4294173232
-1018.43 7741.8301 14295.4 4294173232
-1010.68 7728.75 14266.57 4294173232
-1109.8 7941.2798 14637.99 4294173232
-1100.54 7919.29 14615.83 4294173232
-1092.35 7904.8301 14584.28 4294173232
-1082.99 7881.6499 14536.67 4294173232
-1069.52 7856.27 14493.98 4294173232
-1059.83 7835.7202 14436.3 4294173232
-1050.22 7809.73 14390.22 4294173232
-1034.62 7772.73 14322.73 4294173232
-1027.14 7762.02 14306.4 4294173232
-1019.29 7748.4102 14283.11 4294173232
-1110.34 7945.1499 14618.5 4294173232
-1100.37 7918.0601 14586.99 4294173232
-1091.6801 7899.98 14550.47 4294173232
-1083.21 7883.29 14514.89 4294173232
-1069.4399 7855.73 14468.28 4294173232
-1059.16 7830.75 14402.55 4294173232
-1050.52 7811.9502 14368.13 4294173232
-1035.89 7782.2202 14315.77 4294173232
-1026.76 7759.1602 14276.74 4294173232
-1116.64 7956.8301 14639.51 4294173232
-1108.9399 7935.1401 14575.23 4294173232
-1099.99 7915.3398 14557.13 4294173232
-1092.4 7905.2402 14535.36 4294173232
-1083.33 7884.1899 14491.82 4294173232
-1068.96 7852.21 14437.15 4294173232
-1059.0601 7830 14375.02 4294173232
-1050.03 7808.3398 14337.04 4294173232
-1035.89 7782.21 14291.37 4294173232
-1131.83 7987.1602 14653.1 4294173232
-1124.63 7974.8501 14630.8 4294173232
-1108.97 7935.3398 14550.8 4294173232
-1100.62 7919.8799 14540.69 4294173232
-1092.22 7903.9399 14508.23 4294173232
-1083.65 7886.4902 14471.37 4294173232
-1068.38 7847.8901 14404.63 4294173232
-1059.0699 7830.0601 14350.67 4294173232
-1049.9301 7807.6099 14311.31 4294173232
-1137.67 7984.3101 14622.92 4294173232
-1131.86 7987.3999 14628.65 4294173232
-1124.55 7974.3198 14604.95 4294173232
-1109.9 7942.02 14538.3 4294173232
-1099.17 7915 14506.82 4294173232
-1092.24 7904.0498 14483.75 4294173232
-1082.55 7878.5 14430.49 4294173232
-1068.52 7854.6201 14392.28 4294173232
-1058.37 7824.9199 14316.88 4294173232
-1049.53 7804.6499 14281.56 4294173232
-1141.24 8009.3198 14643.81 4294173232
-1132.3 7990.4702 14607.75 4294173232
-1124.6801 7975.23 14581.83 4294173232
-1109.51 7939.1699 14506.76 4294173232
-1099.1801 7915.1401 14482.42 4294173232
-1092.65 7907.0098 14462.92 4294173232
-1082.96 7881.4502 14411.37 4294173232
-1067.33 7845.8701 14351.82 4294173232
-1057.92 7827.21 14296.58 4294173232
-1153.9 8021.1001 14641.63 4294173232
-1149.1899 8021.0898 14643.72 4294173232
-1140.9399 8007.25 14613.54 4294173232
-1131.39 7984.04 14571.24 4294173232
-1124.08 7971.0098 14549.34 4294173232
-1109.52 7939.2798 14482.36 4294173232
-1099.4 7916.6802 14460.65 4294173232
-1092.15 7903.4102 14431.79 4294173232
-1081.86 7873.4502 14372.31 4294173232
-1067.73 7848.77 14331.12 4294173232
-1156.03 8035.8901 14643.76 4294173232
-1150.47 8030.04 14635.17 4294173232
-1140.97 8007.4302 14589.1 4294173232
-1132.23 7989.9902 14557.39 4294173232
-1124.92 7976.9199 14533.8 4294173232
-1114.5601 7947.5298 14472.18 4294173232
-1109.02 7935.6602 14451.23 4294173232
-1099.4 7916.6802 14434.49 4294173232
-1090.6899 7898.4302 14398.06 4294173232
-1082.46 7877.8198 14355.92 4294173232
-1067.02 7843.5698 14297.34 4294173232
-1156.26 8037.5098 14621.92 4294173232
-1150.6 8030.9102 14610.32 4294173232
-1140.5601 8004.5898 14559.24 4294173232
-1131 7981.3301 14516.95 4294173232
-1122.71 7966.7998 14490.58 4294173232
-1115.08 7951.25 14454.43 4294173232
-1107.84 7932.8301 14421.42 4294173232
-1099.3 7915.9502 14408.71 4294173232
-1091.3 7902.8198 14381.65 4294173232
-1081.95 7874.1099 14324.84 4294173232
-1068.01 7850.8198 14286.31 4294173232
-1164.4301 8055.8901 14628.67 4294173232
-1155.85 8034.6802 14592.04 4294173232
-1150.1899 8028.0801 14580.45 4294173232
-1141.2 8009.0801 14542.76 4294173232
-1131.3199 7983.5801 14496.47 4294173232
-1123.23 7970.52 14472.82 4294173232
-1114.77 7949.02 14425.93 4294173232
-1108.46 7937.23 14405 4294173232
-1098.17 7907.8301 14369.57 4294173232
-1090.28 7895.4502 14343.92 4294173232
-1082.13 7881.0298 14300.08 4294173232
-1164.34 8055.2598 14602.81 4294173232
-1155.75 8034 14564.5 4294173232
-1149.78 8025.2002 14550.6 4294173232
-1140.17 8001.8101 14504.96 4294173232
-1131.12 7982.1401 14469.35 4294173232
-1123.13 7969.79 14447.03 4294173232
-1114.66 7948.25 14400.16 4294173232
-1108.14 7934.9502 14374.91 4294173232
-1099.08 7914.4102 14357.18 4294173232
-1090.36 7896.04 14319.11 4294173232
-1081.86 7879.1001 14283.65 4294173232
-1163.72 8050.9502 14570.31 4294173232
-1155.87 8034.8301 14541.36 4294173232
-1150.11 8027.5 14530.18 4294173232
-1139.75 7998.8599 14475.13 4294173232
-1130.9 7980.5801 14440.46 4294173232
-1122.8199 7967.5698 14418.62 4294173232
-1114.65 7948.1802 14374.09 4294173232
-1107.92 7933.3701 14347.75 4294173232
-1098.05 7906.98 14319.47 4294173232
-1091.15 7901.7998 14305.34 4294173232
-1193.22 8090.6899 14638.51 4294173232
-1189.1 8094.9902 14641.75 4294173232
-1182.87 8095.73 14634.85 4294173232
-1174.36 8080.8301 14621.1 4294173232
-1163.29 8048.0298 14540.46 4294173232
-1154.58 8031.27 14510.21 4294173232
-1149.79 8025.2798 14501.65 4294173232
-1140.5699 8004.6802 14459.59 4294173232
-1130.33 7982.1201 14418.69 4294173232
-1123.4301 7971.8999 14400.49 4294173232
-1115.05 7951.0298 14354.95 4294173232
-1107.09 7927.3901 14312.75 4294173232
-1098.4301 7909.7402 14298.67 4294173232
-1189.55 8098.0601 14622.59 4294173232
-1183.25 8098.3599 14628.09 4294173232
-1173.62 8075.7202 14587.21 4294173232
-1163.5 8049.4902 14516.94 4294173232
-1155 8034.2002 14491.03 4294173232
-1149.37 8022.3501 14471.91 4294173232
-1141.1 8008.3501 14441.82 4294173232
-1130.33 7982.0801 14394.31 4294173232
-1122.48 7965.1699 14364.07 4294173232
-1114.9301 7950.1602 14329.2 4294173232
-1107.99 7933.8599 14300.27 4294173232
-1197.71 8121.1401 14644.1 4294173232
-1191.62 8112.1299 14623.33 4294173232
-1182.61 8093.98 14593.9 4294173232
-1172.9301 8070.9702 14540.95 4294173232
-1163.6 8050.1802 14493.74 4294173232
-1154.26 8029.0098 14457.28 4294173232
-1149.46 8022.9702 14447.03 4294173232
-1138.4301 7995.0898 14393.44 4294173232
-1130.52 7983.4102 14372.46 4294173232
-1122.5601 7965.75 14340.93 4294173232
-1113.77 7941.8999 14290.2 4294173232
-1217.08 8122.8901 14629.26 4294173232
-1198.05 8123.4102 14623.54 4294173232
-1190.76 8106.25 14588.14 4294173232
-1181.97 8089.5898 14561.42 4294173232
-1172.67 8069.1602 14526.27 4294173232
-1163.38 8048.6602 14466.62 4294173232
-1155.42 8037.0698 14447.43 4294173232
-1148.15 8019.29 14415.92 4294173232
-1138.72 7997.1899 14372.98 4294173232
-1129.77 7978.1201 14338.76 4294173232
-1122.4399 7964.8501 14315.18 4294173232
-1224.33 8134.0601 14629.44 4294173232
-1218.53 8132.5698 14622.04 4294173232
-1214.16 8146.0601 14644.61 4294173232
-1207.35 8143.1899 14634.5 4294173232
-1199.14 8130.8198 14610.62 4294173232
-1190.4399 8104.0698 14559.67 4294173232
-1182.4 8092.52 14542.2 4294173232
-1172.02 8064.71 14493.81 4294173232
-1154.23 8028.7998 14406.69 4294173232
-1147.8199 8016.98 14387.52 4294173232
-1138.49 7995.5698 14345.91 4294173232
-1129.84 7978.6099 14313.93 4294173232
-1121.78 7960.23 14282.81 4294173232
-1225.34 8140.77 14616.91 4294173232
-1216.71 8163.1299 14650.62 4294173232
-1207.91 8146.9399 14616.64 4294173232
-1199.04 8130.0898 14584.75 4294173232
-1190.54 8104.7598 14536.44 4294173232
-1181.21 8084.3799 14503.11 4294173232
-1172.52 8073.5801 14483.55 4294173232
-1162.88 8045.1401 14423.06 4294173232
-1153.78 8025.6802 14376.9 4294173232
-1148.22 8019.7798 14368.36 4294173232
-1138.77 7997.5098 14323.68 4294173232
-1129.6 7976.9302 14286.88 4294173232
-1234.04 8161.3398 14627.43 4294173232
-1228.24 8160.0498 14626.92 4294173232
-1223.3101 8164.5 14630.13 4294173232
-1215.61 8155.7598 14612.8 4294173232
-1208.13 8148.4399 14594.78 4294173232
-1198.59 8127.0898 14554.89 4294173232
-1190.0699 8107 14514.22 4294173232
-1182.5 8093.1899 14494.53 4294173232
-1171.86 8069.0498 14451.12 4294173232
-1162.45 8047.6499 14390.23 4294173232
-1154.5 8030.7002 14361.75 4294173232
-1147.76 8016.6099 14338.59 4294173232
-1138.64 7996.6001 14298.02 4294173232
-1230.92 8177.8398 14634.22 4294173232
-1225.2 8177.0898 14628.11 4294173232
-1216.16 8159.48 14594.94 4294173232
-1207.23 8147.7998 14568.91 4294173232
-1198.7 8127.8101 14531.74 4294173232
-1190.28 8108.4102 14492.39 4294173232
-1181.16 8089.4902 14463.4 4294173232
-1172.05 8070.3799 14429.23 4294173232
-1162.85 8050.4302 14371.06 4294173232
-1154.26 8029.0298 14334.68 4294173232
-1147.51 8014.8701 14309.83 4294173232
-1233.38 8194.1904 14638.88 4294173232
-1226.2 8183.75 14613.85 4294173232
-1215.49 8160.3301 14571.78 4294173232
-1207.45 8149.2402 14547.06 4294173232
-1198.25 8124.7402 14501.9 4294173232
-1188.63 8097.1602 14448.04 4294173232
-1181.03 8088.5698 14435.9 4294173232
-1172.36 8072.5 14408.83 4294173232
-1161.3199 8039.8101 14328.07 4294173232
-1154.01 8027.3198 14307.62 4294173232
-1147.48 8014.6099 14285.39 4294173232
-1245.51 8199.96 14627.62 4294173232
-1242.46 8217.0195 14651.65 4294173232
-1234.05 8198.6104 14620.61 4294173232
-1225.74 8180.7202 14583.97 4294173232
-1215.03 8157.23 14540.22 4294173232
-1206.55 8143.1802 14511.91 4294173232
-1196.89 8120.9702 14469.06 4294173232
-1189.7 8104.4702 14436.84 4294173232
-1180.79 8086.9199 14408.79 4294173232
-1171.46 8066.2998 14372.04 4294173232
-1162.25 8046.29 14315.61 4294173232
-1153.76 8025.5698 14280.57 4294173232
-1254.27 8209.9297 14619.55 4294173232
-1250.25 8231.21 14634.27 4294173232
-1241.89 8213.2695 14620.45 4294173232
-1233.14 8197.9297 14594.73 4294173232
-1225.62 8179.8999 14558.11 4294173232
-1214.9 8156.3799 14514.38 4294173232
-1205.97 8139.2798 14479.07 4294173232
-1197.3101 8123.7798 14449.86 4294173232
-1189.9 8105.7998 14415.03 4294173232
-1180.98 8088.23 14387 4294173232
-1171.53 8066.79 14348.87 4294173232
-1161.46 8040.77 14281.86 4294173232
-1258.9399 8240.46 14649.38 4294173232
-1250.58 8233.3799 14613.69 4294173232
-1242.45 8216.96 14602.57 4294173232
-1233.8 8202.3398 14578.16 4294173232
-1225.9399 8182.0298 14537.56 4294173232
-1215.66 8161.46 14499.14 4294173232
-1207.0601 8146.5898 14467.85 4294173232
-1196.85 8120.6499 14420.14 4294173232
-1189.42 8102.54 14383.54 4294173232
-1180.84 8087.25 14361.22 4294173232
-1171.17 8064.3198 14320.5 4294173232
-1161.85 8043.48 14262.81 4294173232
-1260.64 8251.5996 14644.68 4294173232
-1241.99 8219.2305 14582 4294173232
-1233.35 8199.29 14548.39 4294173232
-1224.91 8180.5298 14510.41 4294173232
-1215.1899 8158.2998 14469.32 4294173232
-1206.58 8143.4102 14438.03 4294173232
-1196.8101 8120.4199 14395.64 4294173232
-1189.16 8100.7598 14356.37 4294173232
-1180.8 8086.98 14336.75 4294173232
-1171.6801 8067.7998 14302.73 4294173232
-1270.1899 8240.0303 14599.5 4294173232
-1268.45 8260.2998 14637.38 4294173232
-1261.3101 8256.0303 14628.09 4294173232
-1250.79 8234.7598 14590.1 4294173232
-1240.95 8212.3896 14545.53 4294173232
-1232.87 8196.1504 14518.54 4294173232
-1224.88 8180.3101 14484.17 4294173232
-1215.27 8158.8799 14446.19 4294173232
-1206.22 8140.9702 14409.62 4294173232
-1196.45 8117.9502 14367.25 4294173232
-1189.23 8101.25 14333.29 4294173232
-1180.65 8085.9399 14310.98 4294173232
-1171.0699 8063.6401 14269.9 4294173232
-1282.03 8274.7197 14633.35 4294173232
-1274.4399 8267.6299 14623.96 4294173232
-1270.28 8272.2305 14634.06 4294173232
-1261.87 8259.6602 14608.48 4294173232
-1250.66 8233.8896 14564.23 4294173232
-1241.05 8213 14522.37 4294173232
-1232.84 8195.9199 14492.3 4294173232
-1224.74 8179.3599 14458.35 4294173232
-1214.34 8152.6499 14411.09 4294173232
-1205.96 8139.23 14382.52 4294173232
-1196.85 8120.6499 14348.06 4294173232
-1189.4301 8102.6099 14299.09 4294173232
-1180.16 8082.6001 14279.62 4294173232
-1284.33 8289.54 14633.52 4294173232
-1277.1899 8285.4502 14629.43 4294173232
-1271.64 8281.0596 14623.64 4294173232
-1260.14 8253.6504 14573.31 4294173232
-1249.58 8226.79 14503.23 4294173232
-1240.55 8209.7598 14490.83 4294173232
-1233.71 8201.7002 14478.36 4294173232
-1223.92 8173.8999 14424.63 4294173232
-1214.52 8153.8398 14387.58 4294173232
-1206.03 8139.6699 14359.33 4294173232
-1196.79 8120.27 14321.89 4294173232
-1188.14 8099.21 14281.76 4294173232
-1286.87 8305.9404 14638.06 4294173232
-1277.98 8290.5801 14614.12 4294173232
-1270.9301 8276.4404 14591.16 4294173232
-1260.5699 8256.4805 14554.04 4294173232
-1249.55 8226.5996 14478.78 4294173232
-1241.09 8213.3203 14472.98 4294173232
-1232.66 8194.71 14441.94 4294173232
-1223.54 8171.4102 14396.22 4294173232
-1214.03 8150.5298 14357.8 4294173232
-1205.75 8137.8101 14330.56 4294173232
-1196 8114.9102 14277.5 4294173232
-1188.09 8098.8799 14257.4 4294173232
-1295.7 8326.0195 14650.56 4294173232
-1288.48 8316.3398 14632.01 4294173232
-1277.96 8290.46 14589.62 4294173232
-1270.46 8278.6602 14570.57 4294173232
-1259.98 8252.5801 14522.97 4294173232
-1240.6 8210.0498 14443.16 4294173232
-1232.62 8194.4805 14417.52 4294173232
-1224.28 8176.3101 14379.3 4294173232
-1213.76 8148.71 14330.72 4294173232
-1204.73 8136.29 14292.75 4294173232
-1195.8 8113.5601 14262.48 4294173232
-1305.1801 8339.5596 14645.48 4294173232
-1296.62 8331.8896 14636.53 4294173232
-1288.11 8313.96 14603.52 4294173232
-1278.3199 8292.79 14556.53 4294173232
-1270.3101 8277.71 14544.7 4294173232
-1260.05 8253.0801 14499.72 4294173232
-1249.05 8223.2695 14447.26 4294173232
-1240.4399 8209.0195 14417.34 4294173232
-1232.35 8192.6904 14390.41 4294173232
-1223.48 8170.96 14334.88 4294173232
-1213.49 8152.2598 14312.92 4294173232
-1205.2 8139.4399 14285.61 4294173232
-1195.74 8118.5298 14247.31 4294173232
-1312.38 8343.6201 14628.44 4294173232
-1306.8 8349.9102 14637.7 4294173232
-1297.3 8336.2598 14619.9 4294173232
-1285.89 8304.8496 14563.08 4294173232
-1278.37 8293.1201 14545.84 4294173232
-1269.35 8271.46 14509.57 4294173232
-1260.24 8254.2998 14476.16 4294173232
-1249.13 8229.1201 14433.3 4294173232
-1240.08 8206.6396 14376.48 4294173232
-1232.1899 8191.6099 14364.61 4294173232
-1223.39 8170.3701 14321.15 4294173232
-1213.67 8153.5298 14278.7 4294173232
-1205.14 8139.0698 14261.24 4294173232
-1316.27 8368.3496 14647.47 4294173232
-1306.78 8349.7695 14613.18 4294173232
-1296.91 8333.7803 14589.7 4294173232
-1286.79 8310.6904 14549.15 4294173232
-1277.29 8286.0898 14509.41 4294173232
-1268.97 8268.96 14481.12 4294173232
-1260 8252.7598 14438.26 4294173232
-1248.51 8225.0303 14402.2 4294173232
-1240.22 8207.54 14365.33 4294173232
-1231.5601 8192.7803 14341.02 4294173232
-1224.45 8177.48 14309.83 4294173232
-1213.46 8152.1099 14263.6 4294173232
-1317.1899 8374.25 14633.5 4294173232
-1306.51 8348.0195 14585.9 4294173232
-1296.88 8333.5498 14565.11 4294173232
-1286.62 8309.5898 14521.5 4294173232
-1276.1801 8278.9199 14471.21 4294173232
-1269.41 8271.8604 14449.39 4294173232
-1248.34 8223.9404 14376.39 4294173232
-1240.74 8210.96 14347.5 4294173232
-1231.73 8193.9102 14319.22 4294173232
-1223.9399 8174.0801 14280.17 4294173232
-1342.5601 8373.25 14617.66 4294173232
-1324.72 8390.6201 14637.54 4294173232
-1316.91 8372.4404 14604.5 4294173232
-1306.36 8347.0703 14560.11 4294173232
-1296.25 8329.5195 14533.96 4294173232
-1286.47 8308.5996 14495.72 4294173232
-1276.96 8283.9502 14456.02 4294173232
-1269.21 8270.54 14434.33 4294173232
-1259.17 8247.3203 14392.11 4294173232
-1248.08 8222.1904 14336.85 4294173232
-1239.2 8206.1504 14315.14 4294173232
-1231.92 8195.1299 14284.99 4294173232
-1349.8199 8382.5703 14608.06 4294173232
-1345.3101 8390.4199 14623.4 4294173232
-1340.22 8405.0703 14643.68 4294173232
-1333.15 8402.1797 14633.62 4294173232
-1324.9301 8391.9297 14615.61 4294173232
-1315.83 8370.8301 14577.31 4294173232
-1305.63 8347.6602 14536.82 4294173232
-1296.91 8333.79 14517.35 4294173232
-1286.1801 8306.7305 14468.49 4294173232
-1276.11 8283.7197 14431.48 4294173232
-1269.86 8274.7598 14417.75 4294173232
-1258.89 8245.4502 14365 4294173232
-1247.98 8221.5703 14323.11 4294173232
-1239.02 8204.96 14289.37 4294173232
-1232.0601 8196.0996 14275.63 4294173232
-1357.3 8398.2695 14614.2 4294173232
-1354.42 8411.1201 14633.58 4294173232
-1342.47 8419.2002 14642.42 4294173232
-1334.3199 8409.54 14622.22 4294173232
-1325.37 8394.71 14596.28 4294173232
-1315.1899 8366.7598 14546.15 4294173232
-1305.21 8345 14506.57 4294173232
-1296.39 8330.4297 14487.51 4294173232
-1286.48 8308.71 14448.01 4294173232
-1276.4 8285.6396 14410.92 4294173232
-1268.99 8269.0996 14384.06 4294173232
-1258.59 8243.5303 14337.9 4294173232
-1248.73 8226.4902 14307.96 4294173232
-1238.84 8203.7402 14263.6 4294173232
-1360.95 8420.8203 14629.25 4294173232
-1355.47 8417.6699 14619.18 4294173232
-1344.38 8431.1299 14638.97 4294173232
-1333.8 8406.2803 14592.43 4294173232
-1324.83 8391.3301 14564.7 4294173232
-1315.86 8371.0195 14529.52 4294173232
-1305.17 8344.7002 14482.09 4294173232
-1296.5601 8331.5596 14463.93 4294173232
-1285.24 8300.71 14410.25 4294173232
-1275.41 8279.1602 14375.86 4294173232
-1268.11 8263.3496 14350.31 4294173232
-1258.53 8248.4004 14320.88 4294173232
-1248.54 8225.2598 14282.19 4294173232
-1360.28 8416.6602 14596.28 4294173232
-1352.29 8439.0996 14633.65 4294173232
-1343.73 8427.0801 14607.78 4294173232
-1332.58 8403.8203 14563.86 4294173232
-1324.0699 8386.4697 14532.25 4294173232
-1315.34 8367.6904 14499.76 4294173232
-1305.47 8346.6201 14461.51 4294173232
-1295.8 8326.6299 14431.53 4294173232
-1285.52 8302.5098 14388.01 4294173232
-1275.45 8279.4404 14351.03 4294173232
-1268.96 8268.8896 14334.65 4294173232
-1258.46 8247.96 14296.48 4294173232
-1361.92 8462.8799 14649.03 4294173232
-1355.04 8456.3203 14639.32 4294173232
-1343.9301 8428.3203 14585.85 4294173232
-1332.52 8403.4199 14537.56 4294173232
-1322.97 8384.7402 14505.09 4294173232
-1315.14 8366.4404 14472.12 4294173232
-1304.5699 8340.9199 14427.82 4294173232
-1294.35 8322.54 14400.43 4294173232
-1284.87 8298.2598 14356.93 4294173232
-1275.96 8282.75 14333.09 4294173232
-1268.21 8269.3203 14311.54 4294173232
-1258.5 8248.2402 14273.38 4294173232
-1370.89 8482.3496 14661.74 4294173232
-1362.86 8468.7305 14635.01 4294173232
-1354.39 8452.2305 14608.14 4294173232
-1343.27 8424.1904 14554.69 4294173232
-1332.23 8401.5596 14510.39 4294173232
-1323.27 8386.6504 14484.49 4294173232
-1314.84 8364.5303 14444.98 4294173232
-1304.62 8341.2197 14404.57 4294173232
-1294.4 8322.8799 14377.29 4294173232
-1285.74 8303.9199 14343.04 4294173232
-1275.89 8282.29 14308.68 4294173232
-1268.6 8271.8496 14292.32 4294173232
-1376.39 8480.2197 14632.31 4294173232
-1371.83 8488.1504 14647.62 4294173232
-1363.67 8473.7695 14619.61 4294173232
-1354.1 8450.4102 14580.94 4294173232
-1343.2 8423.7695 14528.39 4294173232
-1332.17 8401.21 14485.9 4294173232
-1323.33 8387.0303 14461.3 4294173232
-1315.02 8365.6396 14423.1 4294173232
-1304.08 8337.75 14374.87 4294173232
-1294.09 8320.8496 14350.09 4294173232
-1284.05 8298.1904 14309.3 4294173232
-1276.05 8283.3096 14286.87 4294173232
-1387.75 8503.8096 14647.71 4294173232
-1379.92 8502.0098 14644.16 4294173232
-1371.3 8484.8398 14617.81 4294173232
-1362.87 8468.7695 14585.36 4294173232
-1354.29 8451.6104 14559 4294173232
-1342.9 8421.8604 14501.22 4294173232
-1332.22 8401.5303 14462.63 4294173232
-1322.64 8382.6602 14428.41 4294173232
-1314.34 8361.3604 14392.01 4294173232
-1305.1801 8344.7803 14361.76 4294173232
-1294.61 8324.1904 14332.22 4294173232
-1284.2 8299.1904 14287.48 4294173232
-1388.5601 8508.7803 14630.59 4294173232
-1380.99 8508.5898 14631.42 4294173232
-1371.74 8487.5596 14598.44 4294173232
-1362.9399 8469.2002 14562.12 4294173232
-1353.74 8448.1699 14529.14 4294173232
-1341.65 8419.2598 14472.69 4294173232
-1332.28 8401.8701 14439.45 4294173232
-1322.45 8381.4805 14402.66 4294173232
-1314.14 8360.0898 14366.19 4294173232
-1304.86 8342.75 14334.66 4294173232
-1294.51 8323.5596 14306.02 4294173232
-1284.1 8298.5303 14261.3 4294173232
-1398.8 8530.3301 14645.4 4294173232
-1391.88 8529.0898 14641.44 4294173232
-1381.0601 8508.9902 14608.07 4294173232
-1371.29 8484.8203 14568.15 4294173232
-1362.26 8464.9902 14530.98 4294173232
-1353.79 8448.4805 14504.23 4294173232
-1342.1899 8422.6504 14454.75 4294173232
-1330.74 8392.1904 14399.14 4294173232
-1322.25 8380.21 14376.83 4294173232
-1314.17 8360.2803 14341.35 4294173232
-1304.0601 8337.6104 14302.31 4294173232
-1294.0699 8320.7305 14277.65 4294173232
-1390.75 8527.3604 14614.21 4294173232
-1380.63 8506.3496 14579.58 4294173232
-1369.4301 8478.46 14533.13 4294173232
-1362.1899 8464.5596 14506.38 4294173232
-1353.47 8446.4697 14476.98 4294173232
-1341.39 8417.5996 14422.35 4294173232
-1331.26 8395.46 14379.53 4294173232
-1321.9301 8378.1504 14349.73 4294173232
-1312.9301 8357.5195 14312.88 4294173232
-1304.38 8344.8398 14290.98 4294173232
-1401.4301 8546.4199 14623.33 4294173232
-1390.8199 8527.7695 14590.96 4294173232
-1380.6899 8506.75 14556.33 4294173232
-1370.23 8483.3896 14517.74 4294173232
-1363.36 8471.79 14494.96 4294173232
-1352.96 8448.4805 14456.45 4294173232
-1341.1899 8416.3203 14396.51 4294173232
-1330.6801 8391.8301 14349.75 4294173232
-1322.3199 8380.6602 14330.45 4294173232
-1312.72 8356.1797 14287.08 4294173232
-1401.4301 8551.54 14607.9 4294173232
-1390.87 8528.0996 14567.63 4294173232
-1379.5 8499.4004 14519.94 4294173232
-1369.28 8477.54 14483.95 4294173232
-1362.17 8464.4102 14458.59 4294173232
-1352.26 8444.1396 14425.35 4294173232
-1341.45 8418.0098 14374.23 4294173232
-1331.5699 8397.4004 14335.72 4294173232
-1321.61 8376.1396 14297.71 4294173232
-1313.59 8361.7402 14273.17 4294173232
-1400.49 8545.7695 14574.15 4294173232
-1390.41 8525.2598 14537.36 4294173232
-1380.03 8502.6797 14500.18 4294173232
-1368.83 8474.7598 14455.5 4294173232
-1361.5699 8460.7305 14427.08 4294173232
-1351.6801 8440.5098 14395.55 4294173232
-1341.12 8415.9102 14347.12 4294173232
-1330.1801 8393.8799 14306.05 4294173232
-1409.86 8566.9297 14592.71 4294173232
-1399.16 8537.6504 14536.46 4294173232
-1390.09 8523.2803 14510.17 4294173232
-1379.83 8501.4102 14474.3 4294173232
-1368.98 8475.71 14431.9 4294173232
-1361.05 8462.6699 14406.56 4294173232
-1351.33 8438.3398 14366.73 4294173232
-1341.39 8417.6104 14326.55 4294173232
-1329.96 8392.4697 14280.25 4294173232
-1409.75 8566.29 14578.9 4294173232
-1399.96 8542.5498 14521.05 4294173232
-1389.88 8522 14484.28 4294173232
-1378.92 8501 14449.72 4294173232
-1369.14 8476.6504 14409.92 4294173232
-1359.97 8455.9102 14371.53 4294173232
-1352.1 8443.1299 14351.39 4294173232
-1340.92 8414.6299 14298.09 4294173232
-1409.42 8564.2998 14551.7 4294173232
-1399.99 8542.7197 14496.03 4294173232
-1389.29 8518.4102 14454.55 4294173232
-1378.72 8499.7197 14423.95 4294173232
-1368.4301 8472.2598 14378.92 4294173232
-1359.86 8455.2803 14347 4294173232
-1351.5 8439.4004 14321.63 4294173232
-1340.8199 8414 14273.67 4294173232
-1408.97 8561.5098 14523.22 4294173232
-1399.77 8541.4004 14470.15 4294173232
-1389.7 8520.9102 14435.21 4294173232
-1378.36 8497.54 14396.73 4294173232
-1368.3199 8471.6201 14354.38 4294173232
-1359.89 8455.4297 14323.84 4294173232
-1351.64 8440.29 14299.77 4294173232
-1409 8561.7305 14499.9 4294173232
-1399.6801 8540.8604 14445.65 4294173232
-1389.22 8517.9404 14405.07 4294173232
-1378.62 8499.1602 14374.42 4294173232
-1368.47 8472.5195 14332.5 4294173232
-1360.76 8460.8496 14308.09 4294173232
-1350.79 8434.9697 14267.45 4294173232
-1417.96 8580.2002 14505.95 4294173232
-1409.55 8565.0801 14481.9 4294173232
-1399.45 8539.4805 14419.79 4294173232
-1389.74 8521.1504 14387.03 4294173232
-1378.15 8496.2002 14346.02 4294173232
-1368.24 8471.0703 14306.69 4294173232
-1359.53 8453.1797 14271.82 4294173232
-1417.61 8578.0996 14478.77 4294173232
-1409.1899 8562.8701 14453.04 4294173232
-1399.86 8541.9297 14400.45 4294173232
-1389.89 8522.0498 14377.63 4294173232
-1377.78 8493.9697 14318.91 4294173232
-1368.36 8471.8301 14283.13 4294173232
-1360.53 8459.4404 14259.15 4294173232
-1417.1899 8580.7197 14459.41 4294173232
-1409.35 8563.8301 14431.11 4294173232
-1399.61 8540.4102 14372.9 4294173232
-1388.96 8521.4902 14340.59 4294173232
-1367.55 8471.9697 14259.91 4294173232
-1428.3 8601.7998 14467.15 4294173232
-1417.74 8584.0098 14441.41 4294173232
-1409.11 8562.4004 14405.25 4294173232
-1399.37 8538.9297 14347.07 4294173232
-1388.08 8516.1104 14308.26 4294173232
-1377.55 8492.5303 14269.95 4294173232
-1367.05 8468.8896 14231.55 4294173232
-1428.3199 8601.8896 14442.22 4294173232
-1416.97 8579.3896 14408.62 4294173232
-1407.67 8558.7402 14375.46 4294173232
