# .PCD v0.7 - Point Cloud Data file format
VERSION 0.7
FIELDS x y z rgb
SIZE 4 4 4 4
TYPE F F F U
COUNT 1 1 1 1
WIDTH 1272
HEIGHT 1
VIEWPOINT 0 0 0 1 0 0 0
POINTS 1272
DATA ascii
1315.89 5391.77 13939.99 4288060708
1324.84 5392.4902 13925.73 4288060708
1328.16 5390.4102 13924.6 4288060708
1331.4301 5390.29 13924.34 4288060708
1334.51 5382.8301 13913.8 4288060708
1339.36 5384.7002 13917.45 4288060708
1343.04 5381.8501 13916.58 4288060708
1346.0699 5378.6499 13912.58 4288060708
1288.26 5427.4399 13979.66 4288060708
1291.02 5422.8301 13968.06 4288060708
1295.1801 5421.8398 13968.06 4288060708
1301.95 5420.3101 13944.98 4288060708
1309.05 5411.0098 13938.13 4288060708
1314.6 5404.46 13935.19 4288060708
1318.27 5401.5 13936 4288060708
1323.27 5403.98 13919.81 4288060708
1327.36 5402.75 13923.13 4288060708
1331.21 5400.54 13922 4288060708
1334.47 5400.4199 13921.73 4288060708
1337.1801 5393.6099 13912.59 4288060708
1340.96 5391.1299 13905.01 4288060708
1345.3199 5391.02 13911.2 4288060708
1348.36 5387.8101 13907.19 4288060708
1285.22 5435.48 13970.25 4288060708
1289.27 5431.6899 13961.44 4288060708
1293.34 5430.27 13958.39 4288060708
1296.1899 5426.0801 13949.84 4288060708
1298.34 5421.29 13943.32 4288060708
1304.29 5427.7202 13935.31 4288060708
1310.73 5417.96 13926.98 4288060708
1313.77 5414.5898 13926.39 4288060708
1316.4301 5412 13925.53 4288060708
1325.5 5413.1299 13914.32 4288060708
1330 5411.2598 13916.34 4288060708
1333.35 5409.25 13913.46 4288060708
1336.05 5406.8198 13909.19 4288060708
1339.84 5402.1099 13905.81 4288060708
1343.64 5401.9302 13903.79 4288060708
1348.28 5400.7002 13905.54 4288060708
1351.45 5397.9199 13904.59 4288060708
1278.3 5452.8901 13975.63 4288060708
1283.36 5441.5698 13954.91 4288060708
1286.75 5441.9199 13957.69 4288060708
1290.6801 5437.6201 13947.58 4288060708
1294.74 5436.1602 13944.44 4288060708
1297.99 5433.6299 13940.17 4288060708
1300.67 5428.7002 13933.65 4288060708
1305.83 5434.1699 13922.85 4288060708
1310.28 5432.0098 13929.84 4288060708
1312.29 5424.3999 13914.52 4288060708
1315.72 5422.6602 13918.11 4288060708
1318.13 5418.98 13914.46 4288060708
1322.1 5417.21 13916.39 4288060708
1328.27 5422.1699 13908.92 4288060708
1332.25 5420.4102 13910.84 4288060708
1335.48 5417.8901 13906.66 4288060708
1338.6 5417.1201 13906.66 4288060708
1346.02 5409.2998 13894.12 4288060708
1350.29 5408.73 13897.27 4288060708
1353.48 5406.0601 13894.66 4288060708
1267.23 5476.48 13972.36 4288060708
1272.97 5467.8999 13970.25 4288060708
1275.9301 5461.6201 13962.52 4288060708
1279.8101 5459.3301 13963.06 4288060708
1287.5699 5459.4302 13942.58 4288060708
1289.66 5454.25 13931.27 4288060708
1292.2 5444.04 13935.02 4288060708
1296.53 5443.7002 13934.75 4288060708
1300.0601 5442.29 13933.36 4288060708
1304.54 5444.8398 13917.07 4288060708
1307.77 5442.23 13914.56 4288060708
1311.71 5437.9702 13914.23 4288060708
1317.8199 5431.29 13911.31 4288060708
1321.17 5429.2202 13910.18 4288060708
1324.99 5426.7998 13912.38 4288060708
1331.08 5433.6499 13907.5 4288060708
1334.09 5427.9102 13901.16 4288060708
1337.1899 5424.8101 13895.5 4288060708
1340.61 5425.2598 13896.72 4288060708
1263.63 5480.0698 13971.28 4288060708
1268.59 5482.3701 13958.39 4288060708
1271.4399 5475.5601 13949.27 4288060708
1274.34 5473.7798 13956.28 4288060708
1276.79 5465.2798 13942.9 4288060708
1280.29 5461.3599 13939.26 4288060708
1284.0601 5458.6001 13936.66 4288060708
1294.8 5454.9902 13932.12 4288060708
1298.61 5452.4302 13926.19 4288060708
1301.98 5448.02 13919.41 4288060708
1309.84 5450.8301 13907.65 4288060708
1313.92 5447.1099 13908.72 4288060708
1316.75 5442.8198 13901.94 4288060708
1320.03 5438.1299 13900.24 4288060708
1323.13 5437.2598 13901.9 4288060708
1326.83 5434.2998 13902.7 4288060708
1332.92 5441.1499 13897.82 4288060708
1335.8199 5434.96 13888.43 4288060708
1339.86 5435.6299 13894.36 4288060708
1342.59 5433.29 13888.43 4288060708
1258.01 5494.1899 13969.48 4288060708
1261.4399 5489.7998 13962.7 4288060708
1265.25 5484.7002 13954.44 4288060708
1270.35 5487.5898 13943.03 4288060708
1273.3199 5483.6499 13940.96 4288060708
1275.71 5479.6602 13942.32 4288060708
1278.55 5472.8198 13933.2 4288060708
1282.83 5472.21 13938.01 4288060708
1286.1 5467.2598 13929.84 4288060708
1289.37 5464.73 13925.57 4288060708
1296.1899 5458.5 13912.5 4288060708
1299.88 5457.73 13910.84 4288060708
1304.6 5458.9502 13916.5 4288060708
1306.49 5453.0098 13907.11 4288060708
1311.8 5458.9902 13897.69 4288060708
1316.26 5456.8301 13904.69 4288060708
1320.29 5455.1699 13904.96 4288060708
1322.52 5448.3799 13897.6 4288060708
1325.76 5448.0698 13900.65 4288060708
1328.79 5442.3398 13894.41 4288060708
1335.16 5450.29 13892.3 4288060708
1338.62 5446.3301 13888.67 4288060708
1342.9 5445.7402 13891.72 4288060708
1345.9301 5444.5298 13888.67 4288060708
1349.21 5439.8799 13885.21 4288060708
1354.12 5441.8101 13888.94 4288060708
1357.55 5437.8101 13885.21 4288060708
1246.08 5517.3999 13974.56 4288060708
1253.14 5506.8701 13966.54 4288060708
1256.86 5503.6802 13960.89 4288060708
1260.4301 5504.75 13951.94 4288060708
1262.66 5495.1299 13947.34 4288060708
1266.09 5488.3398 13934.81 4288060708
1271.83 5493.9902 13930.45 4288060708
1274.55 5488.9502 13925.6 4288060708
1277.34 5486.6401 13931.22 4288060708
1280.5699 5481.48 13926.38 4288060708
1284.75 5478.0498 13922.38 4288060708
1287.88 5474.8501 13918.39 4288060708
1294.42 5472.0498 13917.26 4288060708
1298.24 5467.1299 13905.68 4288060708
1302.59 5466.7798 13905.42 4288060708
1308.96 5463.3101 13904.56 4288060708
1314.66 5468.5801 13893.65 4288060708
1318.21 5464.9102 13896.48 4288060708
1322.25 5463.25 13896.75 4288060708
1327.58 5455.5498 13890.96 4288060708
1331.72 5454.3701 13894.37 4288060708
1341.79 5456.9902 13887.41 4288060708
1345.03 5454.3501 13884.9 4288060708
1348.04 5453.0898 13881.76 4288060708
1352.13 5449.4399 13881.18 4288060708
1356.53 5451.5 13884.9 4288060708
1361.0699 5449.6802 13885.17 4288060708
1240.85 5528.7598 13972.15 4288060708
1242.88 5520.46 13968.67 4288060708
1246.36 5518.6299 13964.23 4288060708
1250.59 5515.21 13960.24 4288060708
1254.35 5512.1899 13951.17 4288060708
1258.0699 5508.9902 13945.52 4288060708
1261.09 5507.6201 13945.79 4288060708
1264.65 5503.7598 13940.41 4288060708
1268.5 5498.7598 13930.49 4288060708
1273.7 5502.0601 13922.13 4288060708
1276.9399 5499.25 13922.94 4288060708
1279.37 5495.3701 13922.63 4288060708
1282.48 5489.6499 13916.4 4288060708
1287.04 5487.79 13918.33 4288060708
1289.91 5483.5 13911.56 4288060708
1296.72 5481.7798 13913.22 4288060708
1300.8101 5477.9502 13904.42 4288060708
1304.9 5476.5098 13901.37 4288060708
1317.27 5479.4199 13892.47 4288060708
1328.62 5473.5298 13888.75 4288060708
1330.48 5467.48 13892.57 4288060708
1340.58 5470.1401 13885.7 4288060708
1344.04 5466.1401 13881.98 4288060708
1347.58 5464.6899 13880.59 4288060708
1354.8101 5460.2202 13879.92 4288060708
1359.3199 5460.4702 13879.38 4288060708
1228.09 5549.0698 13983.37 4288060708
1233.9301 5537.6802 13972.58 4288060708
1237.95 5533.23 13964.06 4288060708
1241.27 5530.6401 13961.55 4288060708
1248.34 5527.3901 13955.63 4288060708
1252.98 5525.75 13942.69 4288060708
1255.97 5519.29 13938.4 4288060708
1271.67 5512.52 13923.14 4288060708
1275.86 5511.3599 13915.01 4288060708
1278.71 5506.8701 13911.56 4288060708
1282.17 5504.9902 13918.57 4288060708
1285.28 5499.27 13912.34 4288060708
1289.1899 5496.98 13912.89 4288060708
1292.0699 5492.6499 13906.02 4288060708
1301.0601 5500.1299 13902.23 4288060708
1298.76 5490.3999 13906.29 4288060708
1307.22 5486.23 13897.32 4288060708
1316.2 5491.2202 13889.54 4288060708
1319.6 5489.1299 13888.42 4288060708
1323.71 5485.3999 13889.5 4288060708
1326.41 5480.4399 13883 4288060708
1329.88 5478.7002 13886.59 4288060708
1333.24 5476.5098 13887.13 4288060708
1336.85 5473.1001 13884.9 4288060708
1342.95 5479.8398 13881.65 4288060708
1346.97 5478.0601 13883.58 4288060708
1349.96 5474.3701 13876.54 4288060708
1353.25 5474.1499 13877.93 4288060708
1357.21 5469.8999 13875.87 4288060708
1362.28 5472.3799 13880.98 4288060708
1229.03 5553.2798 13965.2 4288060708
1232.0601 5549.3501 13963.15 4288060708
1235.23 5543.54 13958.59 4288060708
1239.66 5540.8901 13952.67 4288060708
1244.63 5528.21 13944.08 4288060708
1250.1899 5533.1201 13941.64 4288060708
1253.88 5529.7202 13939.31 4288060708
1261.66 5524.71 13925.8 4288060708
1265.09 5522.6602 13924.69 4288060708
1268.66 5518.79 13919.31 4288060708
1272.87 5517.7202 13920.97 4288060708
1277.98 5520.5601 13909.55 4288060708
1281.76 5517.6201 13910.37 4288060708
1283.91 5512.5 13908.85 4288060708
1288.36 5512.4199 13903.51 4288060708
1291.21 5505.6001 13905.95 4288060708
1294.63 5501.1699 13899.18 4288060708
1303.36 5507.4902 13892.51 4288060708
1309.41 5495.4102 13891.87 4288060708
1313.89 5495.5098 13894.64 4288060708
1321.9301 5498.8398 13884.35 4288060708
1325.78 5493.9702 13882.57 4288060708
1329.1801 5491.8799 13881.45 4288060708
1333.17 5489.96 13886.8 4288060708
1339.23 5482.8101 13880.83 4288060708
1345.33 5489.5298 13877.59 4288060708
1349.38 5487.8501 13877.86 4288060708
1356.35 5486.71 13879.25 4288060708
1359.92 5480.8198 13873.02 4288060708
1222.62 5562.23 13973.65 4288060708
1227.26 5560.4502 13975.68 4288060708
1233.24 5554.6499 13947.76 4288060708
1237.2 5549.8701 13946.07 4288060708
1241.47 5548.98 13944.32 4288060708
1255.61 5537.3398 13927.92 4288060708
1259.92 5534.21 13918.95 4288060708
1263.89 5534.4702 13921.73 4288060708
1274.88 5524 13908.47 4288060708
1280.9 5530.73 13906.86 4288060708
1283.51 5525.1201 13900.64 4288060708
1285.9301 5521.1299 13902 4288060708
1289.7 5518.1899 13902.82 4288060708
1297.05 5511.4502 13896.5 4288060708
1300.48 5509.4702 13893.72 4288060708
1305.66 5517.21 13888.44 4288060708
1308.42 5507.6602 13891.97 4288060708
1311.88 5505.7798 13887.53 4288060708
1316.23 5505.3198 13888.92 4288060708
1324.27 5508.5498 13880.28 4288060708
1328.26 5504.2598 13879.98 4288060708
1332.59 5503.6899 13883.03 4288060708
1337.85 5495.4502 13875.96 4288060708
1341.59 5492.5 13876.77 4288060708
1216.96 5577.27 13966.53 4288060708
1220.58 5573.3301 13962.82 4288060708
1225.3199 5571.98 13956.35 4288060708
1228.1801 5564.6099 13957.42 4288060708
1232.52 5566.5601 13941.46 4288060708
1238.5 5555.7002 13932.08 4288060708
1246.37 5550.8901 13926.7 4288060708
1253.97 5549.8701 13926.43 4288060708
1257.5699 5546 13921.06 4288060708
1262.26 5544.52 13916.25 4288060708
1266.13 5541.8599 13911.99 4288060708
1268.66 5538.23 13906.62 4288060708
1272.75 5536.6001 13906.89 4288060708
1276.99 5533.1499 13902.91 4288060708
1282.89 5539.3198 13899.91 4288060708
1288.1899 5530.8701 13897.92 4288060708
1296.74 5526.7598 13887.2 4288060708
1299.34 5521.1699 13892.42 4288060708
1302.38 5517.5 13885.39 4288060708
1310.73 5517.3799 13887.89 4288060708
1319.77 5520.1001 13884.33 4288060708
1321.29 5512.4199 13884 4288060708
1330.2 5512.27 13871.65 4288060708
1341.02 5508.4902 13880.32 4288060708
1350.37 5510.1001 13870.56 4288060708
1217.99 5582.0098 13949.74 4288060708
1222.11 5580.3198 13951.68 4288060708
1226.47 5577.21 13954.16 4288060708
1229.34 5569.8999 13942.02 4288060708
1233.6899 5571.8301 13926.06 4288060708
1240.9301 5566.5898 13930.76 4288060708
1244.97 5564.5898 13926.23 4288060708
1248.33 5559.6099 13918.08 4288060708
1255.54 5556.79 13915.21 4288060708
1260.05 5554.5 13914.09 4288060708
1263.84 5551.4702 13905.13 4288060708
1268.48 5552.1602 13909.29 4288060708
1271.01 5548.52 13903.92 4288060708
1274.74 5545.2402 13900.03 4288060708
1279.39 5543.54 13898.55 4288060708
1284.76 5547.3999 13891.65 4288060708
1293.99 5536.5298 13891.78 4288060708
1297.96 5531.96 13885.02 4288060708
1302.71 5535.52 13884.78 4288060708
1305.33 5530.02 13888.34 4288060708
1308.51 5529.27 13888.34 4288060708
1317.3 5526.1802 13882.15 4288060708
1329.88 5529.5698 13874.63 4288060708
1334.02 5525.7798 13877.47 4288060708
1337.42 5523.6401 13876.26 4288060708
1349.0699 5520.8101 13876.26 4288060708
1353.83 5521.8999 13872.12 4288060708
1205.79 5603.3901 13962.01 4288060708
1210.25 5603.2202 13960.07 4288060708
1213.14 5595.7998 13949.61 4288060708
1220.13 5591.8101 13945.63 4288060708
1223.8 5585.48 13936.28 4288060708
1227.51 5581.9399 13937.37 4288060708
1232.03 5582.0801 13928.7 4288060708
1236 5582.25 13921.68 4288060708
1239.3101 5579.4702 13922.51 4288060708
1242.49 5573.5601 13919.62 4288060708
1247.4399 5573.1299 13919.35 4288060708
1250.78 5570.5 13916.75 4288060708
1254.24 5568.4502 13915.63 4288060708
1257.75 5566.5601 13911.11 4288060708
1261.76 5562.0098 13904.35 4288060708
1266.21 5561.8701 13900.76 4288060708
1269.9399 5558.54 13896.77 4288060708
1273.41 5556.54 13893.91 4288060708
1277.51 5554.8701 13895.93 4288060708
1290.5699 5555.52 13889.49 4288060708
1293.41 5550.8501 13889.47 4288060708
1327.97 5537.98 13876.43 4288060708
1332.08 5538.7202 13869.15 4288060708
1336.78 5537.23 13875.88 4288060708
1350.2 5525.4302 13872.69 4288060708
1360.4 5530.3599 13871.35 4288060708
1196.59 5618.27 13958.44 4288060708
1203.75 5614.8799 13955.94 4288060708
1207.55 5611.5898 13951.97 4288060708
1210.89 5606.2202 13939.02 4288060708
1215.01 5604.4502 13942.62 4288060708
1221.79 5599.4302 13934.2 4288060708
1225.7 5594.1602 13929.38 4288060708
1229.42 5590.6099 13930.48 4288060708
1232.9301 5586.1499 13923.63 4288060708
1238.29 5592.5801 13918.96 4288060708
1241.22 5588.0801 13915.53 4288060708
1249.39 5581.8301 13910.71 4288060708
1252.33 5577.4399 13905.61 4288060708
1256.08 5576.6001 13905.61 4288060708
1261.01 5578.5498 13910.98 4288060708
1263.72 5570.6401 13897.47 4288060708
1275.78 5566.8799 13891.28 4288060708
1284.02 5563.6201 13891.83 4288060708
1295.54 5559.98 13883.89 4288060708
1326.3101 5545.1299 13875.36 4288060708
1335.37 5552.3701 13874.94 4288060708
1343.1 5547.0801 13876.31 4288060708
1346.59 5542.9199 13876.01 4288060708
1359.5601 5545.2798 13872.07 4288060708
1194.08 5627.6602 13968.07 4288060708
1198.7 5628.1802 13952.65 4288060708
1205.24 5621.8198 13944.69 4288060708
1209.29 5619.6802 13943.58 4288060708
1213.13 5616.5801 13936.28 4288060708
1216.15 5609.7002 13927.21 4288060708
1223.3 5606.3501 13922.96 4288060708
1227.61 5602.8701 13920.74 4288060708
1231.08 5598.1802 13918.97 4288060708
1234.46 5593.1001 13912.49 4288060708
1240.33 5601.79 13913.45 4288060708
1242.89 5595.5801 13905.77 4288060708
1247.02 5591.3599 13905.47 4288060708
1251.3199 5590.48 13903.82 4288060708
1255.3199 5588.23 13904.36 4288060708
1258.6801 5585.6802 13900.11 4288060708
1262.1899 5583.77 13895.58 4288060708
1266.3101 5582.0601 13897.52 4288060708
1286.14 5570.3701 13880.6 4288060708
1318.51 5569.1401 13874.81 4288060708
1324.8 5557.6401 13873.84 4288060708
1329.17 5557.0898 13876.89 4288060708
1337.83 5562.6299 13872.22 4288060708
1341.87 5558.3198 13871.93 4288060708
1345.7 5555.5 13869.34 4288060708
1348.95 5552.6099 13871.91 4288060708
1356.04 5549.3198 13875.78 4288060708
1181.78 5649.6699 13968.56 4288060708
1185.25 5644.6699 13960.33 4288060708
1191.38 5636.2202 13956.63 4288060708
1195.45 5634.0898 13955.52 4288060708
1200.6 5634.4302 13940 4288060708
1206.61 5628.23 13932.15 4288060708
1210.67 5626.0898 13931.04 4288060708
1215.02 5625.3101 13927.62 4288060708
1218.9301 5619.9302 13924.47 4288060708
1222.49 5618.1401 13918.28 4288060708
1226.23 5617.1699 13921.7 4288060708
1229.5 5611.5 13913.74 4288060708
1233.23 5607.9502 13914.84 4288060708
1237.66 5605.02 13914.01 4288060708
1242.14 5607.4502 13899.43 4288060708
1245.6 5605.2202 13901.64 4288060708
1253 5597.9702 13894.05 4288060708
1257.25 5596.8301 13897.38 4288060708
1268.54 5591.8901 13891.74 4288060708
1273.01 5589.27 13884.16 4288060708
1277.5601 5589.4102 13886.94 4288060708
1280.5 5587.46 13885.82 4288060708
1284.11 5583.5601 13880.46 4288060708
1288.78 5581.7998 13880.74 4288060708
1298.01 5585.1201 13878.54 4288060708
1300.0699 5579.4302 13875.66 4288060708
1311.86 5571.98 13875.92 4288060708
1315.46 5570.54 13874.53 4288060708
1323.09 5567.0298 13868.62 4288060708
1334 5563.1099 13867.42 4288060708
1175.5601 5663.2798 13963.57 4288060708
1179.83 5659.3198 13958.22 4288060708
1183.54 5655.3799 13954.52 4288060708
1186.72 5651.6401 13949.16 4288060708
1189.85 5647.73 13947.12 4288060708
1193.22 5644.9102 13949.71 4288060708
1196.5601 5639.3398 13940.1 4288060708
1206.1 5641.6499 13933.36 4288060708
1208.36 5636.3901 13922.09 4288060708
1212.95 5634.04 13922.64 4288060708
1216.64 5632.8101 13917.84 4288060708
1220.8101 5628.6001 13917.55 4288060708
1224.37 5626.79 13911.37 4288060708
1227.87 5624.6802 13911.92 4288060708
1231.27 5619.5601 13905.36 4288060708
1234.79 5612.4902 13898.05 4288060708
1239.5601 5613.6299 13907.01 4288060708
1244.6801 5618.9199 13899.55 4288060708
1251.37 5610.8701 13897.22 4288060708
1255.8199 5610.5601 13896.95 4288060708
1262.8199 5604.0098 13889 4288060708
1266.6 5603.2598 13887.34 4288060708
1270.64 5598.6802 13880.59 4288060708
1275.75 5601.27 13885.67 4288060708
1279.52 5598.02 13880.04 4288060708
1297.36 5599.3701 13877.84 4288060708
1302.73 5590.8599 13875.79 4288060708
1306.3 5586.7998 13873.84 4288060708
1310.97 5585.02 13874.12 4288060708
1314.5699 5583.4902 13874.39 4288060708
1318.16 5581.96 13874.67 4288060708
1325.66 5577.8398 13867.28 4288060708
1330.5 5579.1802 13871.25 4288060708
1334.52 5579.4399 13874.12 4288060708
1175 5674.23 13960.8 4288060708
1177.9 5671.8301 13956.55 4288060708
1181.4 5666.8501 13948.42 4288060708
1185.48 5664.6299 13948.98 4288060708
1187.9301 5657.4502 13935.12 4288060708
1191.6801 5656.4199 13940.2 4288060708
1194.63 5648.8799 13931.42 4288060708
1198.4 5647.98 13933.09 4288060708
1207.58 5648.6001 13922.19 4288060708
1210.21 5645.02 13915.08 4288060708
1214.3101 5640.3799 13910 4288060708
1218.8 5640.1899 13908.06 4288060708
1222.46 5636.1899 13906.11 4288060708
1226.79 5635.29 13904.36 4288060708
1229.88 5633.8901 13906.39 4288060708
1233.95 5629.2002 13901.22 4288060708
1237.9399 5626.8101 13905.19 4288060708
1241.72 5623.3901 13902.88 4288060708
1246.59 5627.52 13892.54 4288060708
1249.8101 5624.1802 13891.98 4288060708
1253.16 5618.8999 13888.84 4288060708
1258.79 5621.3101 13895.58 4288060708
1261.26 5614.6899 13883.2 4288060708
1265.15 5614.3501 13886.34 4288060708
1269.59 5616.48 13889.95 4288060708
1273.37 5610.6899 13882.09 4288060708
1285.89 5608.5098 13881.82 4288060708
1293.8101 5603.6099 13876.46 4288060708
1299.74 5609.6499 13875.09 4288060708
1305.55 5602.9399 13875.63 4288060708
1309.26 5597.0298 13869.44 4288060708
1313.38 5595.29 13871.37 4288060708
1317.52 5596.0298 13877.28 4288060708
1328.78 5590.9702 13871.65 4288060708
1333.63 5592.3101 13875.62 4288060708
1165.1899 5690.0098 13966.79 4288060708
1167.6899 5682.8198 13952.94 4288060708
1170.54 5674.6201 13957.66 4288060708
1178.51 5674.77 13935.48 4288060708
1182.37 5671.48 13931.51 4288060708
1186.7 5670.48 13933.18 4288060708
1190.0601 5664.8398 13925.33 4288060708
1193.27 5663.9399 13930.41 4288060708
1196.58 5658.1099 13925.88 4288060708
1199.75 5654.3701 13920.53 4288060708
1205.89 5659.25 13916.28 4288060708
1209.33 5656.75 13912.12 4288060708
1212.36 5652.3901 13905.29 4288060708
1216.3 5649.6099 13904.46 4288060708
1220.91 5649.96 13903.91 4288060708
1224.58 5645.96 13901.96 4288060708
1228.8 5644.5098 13898.82 4288060708
1232.02 5643.71 13900.48 4288060708
1235.96 5638.3999 13895.68 4288060708
1239.97 5636.0098 13899.65 4288060708
1244.02 5633.8101 13898.45 4288060708
1252.24 5635.1401 13888.94 4288060708
1255.6 5629.8599 13885.8 4288060708
1260.61 5629.4199 13885.53 4288060708
1267.34 5624.0898 13882.2 4288060708
1271.53 5625.1001 13883.03 4288060708
1275.97 5622.1401 13882.2 4288060708
1284.36 5619.1899 13876.01 4288060708
1302.41 5621.1802 13873.53 4288060708
1306.27 5618.23 13874.36 4288060708
1308.61 5613.6499 13874.26 4288060708
1312.0699 5609.02 13870.93 4288060708
1316.46 5608.3901 13875.64 4288060708
1320.34 5605.6099 13873.15 4288060708
1162.84 5700.79 13960.85 4288060708
1165.91 5693.52 13947.1 4288060708
1170.25 5692.5298 13948.76 4288060708
1172.34 5683.3198 13950.72 4288060708
1177.64 5686.9902 13935.56 4288060708
1184.53 5681.8501 13928.73 4288060708
1188.63 5679.7202 13927.62 4288060708
1194.6 5670.2798 13917.75 4288060708
1198.77 5668.4702 13923.11 4288060708
1202.38 5664.0898 13914.61 4288060708
1207.87 5668.5601 13909.07 4288060708
1211.71 5665.25 13905.1 4288060708
1215.08 5665.0601 13908.24 4288060708
1218.42 5659.4702 13898.63 4288060708
1223.14 5660.2998 13901.13 4288060708
1226.5699 5655.1201 13896.33 4288060708
1231.3199 5656.0898 13897.25 4288060708
1233.91 5652.3501 13893.56 4288060708
1238.23 5648.7202 13892.92 4288060708
1242 5645.2598 13892.36 4288060708
1245.92 5642.4399 13891.53 4288060708
1251.05 5647.6699 13883.96 4288060708
1257.65 5639.04 13880.27 4288060708
1270.47 5635.48 13880.54 4288060708
1274.28 5634.71 13878.88 4288060708
1278.5601 5633.5601 13882.21 4288060708
1283.09 5630.9902 13872.97 4288060708
1286.74 5629.5698 13871.59 4288060708
1290.76 5629.7402 13876.02 4288060708
1294.13 5624.6899 13867.89 4288060708
1299.63 5626.3301 13876.57 4288060708
1308.39 5627.3501 13868.73 4288060708
1152.46 5708.5601 13968.5 4288060708
1156.27 5704.8599 13959.73 4288060708
1159.8199 5702.7202 13962.05 4288060708
1163.21 5702.5801 13937.01 4288060708
1167.6801 5702.1699 13940.06 4288060708
1171.33 5697.75 13933.32 4288060708
1174.55 5691.2998 13942.29 4288060708
1181.16 5687.5298 13936.66 4288060708
1187.36 5692.71 13927.41 4288060708
1190.2 5687.2202 13917.82 4288060708
1193.5699 5681.5801 13909.97 4288060708
1196.84 5678.2202 13909.33 4288060708
1200.37 5676.0601 13911.64 4288060708
1204.1 5672.1802 13906.29 4288060708
1210.25 5677.0498 13902.04 4288060708
1213.6801 5674.46 13899.55 4288060708
1217.1801 5674.8501 13904.06 4288060708
1220.52 5669.2402 13894.47 4288060708
1228.3101 5663.1602 13887.92 4288060708
1233.0699 5664.1201 13888.84 4288060708
1236.28 5663.23 13892.16 4288060708
1243.77 5653.2798 13883.96 4288060708
1248.49 5651.5 13885.99 4288060708
1253.88 5657.8599 13881.18 4288060708
1257.12 5654.5098 13880.63 4288060708
1261 5651.5098 13883.12 4288060708
1265.23 5650.0601 13880.08 4288060708
1272.67 5645.21 13876.39 4288060708
1276.35 5643.8799 13873.34 4288060708
1280.39 5641.6499 13872.14 4288060708
1285.8199 5643 13874.45 4288060708
1293.12 5640.0601 13873.34 4288060708
1297.16 5637.8198 13872.14 4288060708
1301.48 5634.3599 13868.27 4288060708
1143.4 5725.96 13978.71 4288060708
1146.97 5726.6499 13963.17 4288060708
1150.15 5719.75 13954.14 4288060708
1153.75 5714.9302 13955.82 4288060708
1157.7 5711.9199 13946.87 4288060708
1161 5708.52 13947.99 4288060708
1165.09 5711.8301 13931.44 4288060708
1169.89 5710.1699 13931.72 4288060708
1173.23 5707.0098 13927.75 4288060708
1175.87 5697.6802 13929.71 4288060708
1180.98 5703.1299 13918.71 4288060708
1182.61 5694.4702 13925.47 4288060708
1188.45 5697.8999 13911.97 4288060708
1192.5699 5695.7798 13910.86 4288060708
1196 5693.1499 13908.28 4288060708
1199.78 5692.1299 13913.36 4288060708
1202.6801 5686.9702 13910.24 4288060708
1206.54 5683.6602 13906.27 4288060708
1212.09 5685.7002 13895.09 4288060708
1215.9 5684.8101 13896.75 4288060708
1219.04 5683.54 13895.36 4288060708
1223.42 5680.0098 13893.06 4288060708
1227.26 5679.3599 13889.74 4288060708
1235.4399 5675 13887.44 4288060708
1239.21 5674.04 13890.85 4288060708
1242.78 5669.4902 13885.78 4288060708
1246.71 5664.0801 13882.65 4288060708
1250.9 5662.3799 13884.59 4288060708
1256.17 5668.2202 13878.48 4288060708
1259.16 5663.6899 13875.07 4288060708
1263.17 5661.25 13878.96 4288060708
1267.41 5659.7998 13875.91 4288060708
1274.99 5655.5098 13873.61 4288060708
1279.0699 5655.8999 13874.8 4288060708
1283.66 5653.5498 13873.61 4288060708
1288.3 5653.8599 13873.05 4288060708
1292.5 5652.2998 13871.67 4288060708
1295.48 5650.3501 13870.56 4288060708
1299.39 5647.54 13867.98 4288060708
1304.51 5647.4902 13872.5 4288060708
1314.24 5652.5298 13874.52 4288060708
1137.55 5742.5 13979.01 4288060708
1141.42 5736.0601 13971.37 4288060708
1144.45 5731.1899 13963.25 4288060708
1148.21 5730.02 13943.48 4288060708
1152.01 5729.02 13948.56 4288060708
1155.04 5721.3198 13943.23 4288060708
1167.34 5722.8701 13928.34 4288060708
1171.4301 5717.6899 13921.89 4288060708
1175.14 5716.29 13920.41 4288060708
1177.53 5705.75 13921.29 4288060708
1183.39 5714.7598 13917.09 4288060708
1190.38 5707.1699 13904.65 4288060708
1198.0601 5702.9399 13904.1 4288060708
1204.02 5693.3198 13897.66 4288060708
1208.12 5691.1299 13896.46 4288060708
1214.1801 5695.48 13890.9 4288060708
1221.02 5692.7402 13889.8 4288060708
1229.37 5689.1201 13885.56 4288060708
1233.6 5684.9399 13883.54 4288060708
1238.24 5685.2402 13884.73 4288060708
1241.22 5683.23 13885.29 4288060708
1249.11 5674.9502 13881.25 4288060708
1252.8 5671 13877.65 4288060708
1258.46 5678.52 13875.69 4288060708
1261.5699 5674.5601 13873.67 4288060708
1265.73 5672.7202 13879.03 4288060708
1269.84 5670.6699 13874.5 4288060708
1274.04 5669.04 13874.78 4288060708
1277.3199 5665.8398 13870.91 4288060708
1286.01 5663.8701 13870.91 4288060708
1290.78 5664.75 13871.74 4288060708
1295.12 5663.7598 13871.74 4288060708
1298.64 5661.6699 13870.63 4288060708
1126.98 5752.7798 13975.64 4288060708
1131.11 5753.3901 13973.32 4288060708
1134.63 5750.9199 13969.17 4288060708
1138.8101 5745.96 13957.64 4288060708
1142.22 5740.1099 13953.05 4288060708
1145.48 5736.3701 13947.71 4288060708
1150.0699 5739.2798 13937.89 4288060708
1153.41 5735.9702 13937.35 4288060708
1156.92 5730.6299 13935.89 4288060708
1166.6 5733.2402 13924.14 4288060708
1168.63 5729.1899 13915.66 4288060708
1173.09 5725.79 13911.69 4288060708
1177.28 5726.7002 13917.69 4288060708
1179.08 5713.2402 13911.47 4288060708
1188.42 5719.7002 13903.03 4288060708
1192.67 5718.1499 13903.3 4288060708
1196.1899 5713.0898 13895.1 4288060708
1200.3 5710.8599 13895.66 4288060708
1202.9301 5707.0801 13893.73 4288060708
1206.75 5703.54 13894.85 4288060708
1210.2 5700.9102 13892.28 4288060708
1216.38 5705.8101 13888.09 4288060708
1223.11 5702.5 13885.61 4288060708
1227.5 5698.9702 13883.31 4288060708
1240.23 5694.3901 13879.07 4288060708
1243.22 5692.3799 13879.63 4288060708
1248.74 5694.0698 13875.18 4288060708
1251.25 5684.7002 13877.06 4288060708
1255.46 5683.04 13879.1 4288060708
1260.89 5689.48 13872.61 4288060708
1264.53 5687.8501 13876.3 4288060708
1267.8 5681.98 13871.8 4288060708
1272.85 5681.5298 13871.52 4288060708
1276.49 5679.9399 13873.46 4288060708
1284.14 5678.3101 13871.8 4288060708
1117.62 5778.3599 13982.33 4288060708
1121.34 5770.8901 13983.49 4288060708
1124.75 5764.8198 13970.86 4288060708
1129.02 5763.21 13972.81 4288060708
1132.14 5758.6001 13957.86 4288060708
1135.08 5753.2002 13946.61 4288060708
1140.86 5756.3301 13941.59 4288060708
1143.97 5748.8901 13944.41 4288060708
1147.0699 5741.46 13932.25 4288060708
1155.16 5744.7002 13928.62 4288060708
1159.1 5738.6299 13927.54 4288060708
1171.1899 5738.8901 13911.45 4288060708
1174.98 5735.02 13906.1 4288060708
1179.01 5732.3198 13903.62 4288060708
1187.04 5729.6099 13897.44 4288060708
1194.59 5727.3599 13897.72 4288060708
1198.36 5723.4702 13892.38 4288060708
1202.35 5720.6401 13891.46 4288060708
1204.99 5716.8501 13889.54 4288060708
1218.85 5717.4102 13886.47 4288060708
1223.1 5715.8198 13886.75 4288060708
1230.36 5712.2598 13885.84 4288060708
1234.65 5710.9102 13881.13 4288060708
1237.84 5704.4399 13875.16 4288060708
1243 5707.1001 13880.22 4288060708
1245.24 5701.6401 13872.39 4288060708
1249.98 5699.75 13876 4288060708
1253.66 5695.6201 13875.73 4288060708
1258.14 5695.1699 13878.87 4288060708
1263.5601 5701.5298 13874.03 4288060708
1272.17 5699.0098 13872.65 4288060708
1275.41 5692.9702 13871.48 4288060708
1111.49 5785.3101 13973.32 4288060708
1115.45 5785 13978.13 4288060708
1117.96 5780.1499 13971.69 4288060708
1125.89 5770.6802 13955.11 4288060708
1129.9399 5767.8901 13954.2 4288060708
1134.63 5768.3701 13938.75 4288060708
1138.16 5765.8599 13934.51 4288060708
1141.3199 5758.6401 13932.25 4288060708
1145.35 5755.79 13933.09 4288060708
1149.27 5752.46 13930.89 4288060708
1153.4399 5756.1099 13920.79 4288060708
1156.87 5750.3301 13914.54 4288060708
1160.73 5746.6899 13919.09 4288060708
1164.5601 5742.9502 13910.33 4288060708
1168.61 5743.1401 13918.27 4288060708
1180.9 5741.5 13897.93 4288060708
1184.04 5734.5098 13905.55 4288060708
1189.0699 5739.3901 13893.23 4288060708
1190.59 5730.1401 13898.54 4288060708
1196.51 5736.5298 13892.03 4288060708
1200.65 5734.3901 13890.93 4288060708
1204.77 5732.1602 13891.49 4288060708
1207.66 5729.5098 13892.34 4288060708
1211.39 5725.4902 13890.42 4288060708
1215.02 5720.9302 13885.36 4288060708
1221.05 5727.7402 13883.65 4288060708
1225.3101 5726.1499 13883.93 4288060708
1231.96 5719.7002 13876.01 4288060708
1236.76 5720.6699 13876.93 4288060708
1240.59 5717.1099 13878.05 4288060708
1244.62 5714.54 13870.39 4288060708
1252.65 5711.8799 13875.75 4288060708
1255.8 5705.3599 13871.54 4288060708
1260.97 5705.3701 13876.06 4288060708
1269.37 5709.6401 13873.53 4288060708
1109.5699 5799.3198 13967.67 4288060708
1113.38 5795.1802 13969.08 4288060708
1116.23 5789.02 13959.79 4288060708
1119.1899 5783.48 13951.98 4288060708
1124.05 5784.8101 13946.04 4288060708
1128.6899 5782.0801 13941.81 4288060708
1131.1899 5774.27 13941.58 4288060708
1135.55 5773.04 13935.12 4288060708
1138.84 5769.3398 13928.03 4288060708
1143.39 5769.0698 13929.5 4288060708
1146.84 5763.29 13923.25 4288060708
1154.9399 5763.6001 13910.95 4288060708
1159.08 5761.3198 13913.18 4288060708
1162.9399 5757.6401 13917.63 4288060708
1174.59 5755.5898 13896.01 4288060708
1179.4301 5753.9199 13896.29 4288060708
1182.91 5751.29 13893.72 4288060708
1192.62 5739.9302 13894.33 4288060708
1198.98 5745.6201 13886.43 4288060708
1202.88 5742.29 13882.48 4288060708
1207.21 5743.77 13889.85 4288060708
1210.16 5738.6802 13885.08 4288060708
1214.0601 5738.0698 13880 4288060708
1216.86 5729.6001 13876.63 4288060708
1223.6899 5737.3799 13879.43 4288060708
1227.14 5734.73 13876.86 4288060708
1230.3199 5733.4502 13875.48 4288060708
1234.5601 5731.77 13877.42 4288060708
1238.99 5730.9902 13874.1 4288060708
1247.38 5727.21 13873.28 4288060708
1250.9301 5725.0698 13873.84 4288060708
1254.66 5721.0601 13870.17 4288060708
1263.25 5715.6899 13873.23 4288060708
1105.49 5805.1499 13973.82 4288060708
1110.79 5805.7002 13955.04 4288060708
1114.0601 5798.6899 13947.7 4288060708
1117.9 5794.7202 13945.79 4288060708
1120.98 5792.7598 13946.36 4288060708
1124.84 5788.9102 13941.02 4288060708
1129.26 5784.9902 13933.93 4288060708
1132.98 5780.48 13928.88 4288060708
1137.25 5781.6802 13928.03 4288060708
1140.78 5779.1602 13923.79 4288060708
1144.99 5777.1401 13921.03 4288060708
1152.63 5769.25 13913.68 4288060708
1157.22 5772.1099 13903.86 4288060708
1160.8199 5769.9399 13906.09 4288060708
1164.1 5763.3999 13903.64 4288060708
1181.55 5764.2798 13893.44 4288060708
1185.42 5763.48 13893.44 4288060708
1191.47 5750.9702 13891.49 4288060708
1194.53 5749.1401 13888.73 4288060708
1201.4 5757.23 13884.78 4288060708
1205.41 5754.3901 13883.87 4288060708
1209.14 5752.9302 13884.16 4288060708
1212.46 5749.5898 13883.62 4288060708
1215.4 5744.4102 13880.51 4288060708
1220.51 5746.8198 13877.44 4288060708
1225.77 5747.1401 13875.21 4288060708
1229.36 5745.1001 13874.11 4288060708
1232.79 5744.96 13875.49 4288060708
1237.22 5741.4102 13873.2 4288060708
1245.61 5737.6299 13872.39 4288060708
1249.5 5736.9502 13869.06 4288060708
1253.4399 5736.5298 13873.77 4288060708
1257.4301 5733.6899 13872.95 4288060708
1265.66 5726.6099 13871.87 4288060708
1100.41 5820.98 13971 4288060708
1102.52 5813.8198 13957.2 4288060708
1107.71 5813.77 13951.92 4288060708
1112.11 5812.6001 13943.7 4288060708
1116.29 5807.2798 13940.69 4288060708
1119.5699 5803.3701 13938.69 4288060708
1122.4301 5800.2598 13936.49 4288060708
1126.29 5796.3701 13931.07 4288060708
1130.84 5793.0601 13925.45 4288060708
1135.71 5794.3999 13919.61 4288060708
1138.72 5789.1699 13918.17 4288060708
1142.26 5786.6401 13913.94 4288060708
1147.14 5785.0801 13912.56 4288060708
1152.11 5786.8999 13909.76 4288060708
1154.47 5778.4902 13908.07 4288060708
1162.67 5779.1602 13900.48 4288060708
1167.25 5779.0098 13898.53 4288060708
1170.65 5773 13897.37 4288060708
1178.48 5774.6299 13884.41 4288060708
1187.4301 5773.27 13889.21 4288060708
1189.74 5762.1201 13888.64 4288060708
1195.95 5769.8398 13881.65 4288060708
1199.15 5768.5698 13880.27 4288060708
1203.6801 5768.1499 13883.31 4288060708
1207.46 5764.1602 13879.64 4288060708
1211.3199 5763.3101 13881.4 4288060708
1214.28 5758.21 13876.63 4288060708
1218.15 5754.6699 13877.76 4288060708
1221.87 5753.2002 13878.04 4288060708
1228.22 5758.6602 13875.22 4288060708
1232.09 5757.8301 13875.22 4288060708
1235.01 5755.2798 13872.65 4288060708
1239.95 5754.1001 13876.07 4288060708
1248.13 5749.21 13870.73 4288060708
1252.6801 5748.8999 13870.45 4288060708
1255.5699 5746.27 13869.54 4288060708
1259.86 5742.1699 13865.96 4288060708
1089.79 5838.3501 13971.21 4288060708
1093.39 5829.7998 13952.99 4288060708
1098.1801 5830.6401 13958.89 4288060708
1102.16 5827.21 13958.27 4288060708
1104.0601 5818.8901 13941.72 4288060708
1108.25 5816.6099 13945.7 4288060708
1113.34 5819.02 13929.4 4288060708
1117.84 5815.3501 13932.2 4288060708
1121.47 5813.21 13934.44 4288060708
1123.54 5805.9902 13922.39 4288060708
1128.42 5804.3599 13922.68 4288060708
1132.42 5801.1602 13917.06 4288060708
1136.73 5799.5601 13919.01 4288060708
1140.3101 5797.2202 13909.69 4288060708
1143.86 5794.73 13905.55 4288060708
1149.21 5795.5498 13908.03 4288060708
1153.03 5791.48 13907.78 4288060708
1156.63 5786.4199 13899.59 4288060708
1161.15 5791.7002 13895.38 4288060708
1176.5601 5779.3701 13892.6 4288060708
1181.87 5788.3999 13890.01 4288060708
1185.6899 5784.5 13884.69 4288060708
1189.88 5782.3599 13883.59 4288060708
1191.9 5772.5498 13884.13 4288060708
1198.22 5780.7598 13880.17 4288060708
1201.05 5777.73 13874.56 4288060708
1205.72 5777.9199 13879.07 4288060708
1209.77 5775.1899 13876.59 4288060708
1213.9301 5772.96 13877.16 4288060708
1216.58 5769.1201 13875.16 4288060708
1220.58 5766.1499 13877.67 4288060708
1224.1899 5764.1201 13876.57 4288060708
1238.16 5767.25 13874.03 4288060708
1246.89 5764.8501 13870.98 4288060708
1250.62 5760.6802 13870.64 4288060708
1083.91 5850.4302 13964.99 4288060708
1086.92 5847.8701 13964.09 4288060708
1090.42 5841.75 13951.49 4288060708
1094.8 5837.3101 13943.11 4288060708
1099.26 5836.3799 13944.78 4288060708
1103.26 5833.0298 13942.5 4288060708
1105.8199 5828.1602 13936.07 4288060708
1109.91 5825.3501 13936.92 4288060708
1115.89 5829.3301 13926.52 4288060708
1119.39 5823.4199 13923.71 4288060708
1122.8101 5820.1602 13921.43 4288060708
1125.6801 5817.0498 13919.23 4288060708
1129.76 5811.2402 13911.33 4288060708
1134.5601 5812.1401 13915.56 4288060708
1138.09 5806.5 13906 4288060708
1142.79 5806.9302 13905.44 4288060708
1146.03 5805.77 13902.4 4288060708
1151.16 5805.3501 13903.78 4288060708
1154.76 5800.1802 13899.01 4288060708
1159.87 5802.6299 13895.93 4288060708
1163.25 5802.1499 13890.85 4288060708
1167.1899 5798.7202 13890.32 4288060708
1175.3 5793.0898 13890.35 4288060708
1183.63 5797.0298 13883 4288060708
1191.64 5790.9399 13876.49 4288060708
1194.28 5784.0898 13884.12 4288060708
1200.37 5791.1401 13877.39 4288060708
1211.8199 5784.96 13872.35 4288060708
1219.13 5781.2202 13876.53 4288060708
1233.02 5781.1499 13872.06 4288060708
1237.1801 5778.9399 13870.88 4288060708
1240.25 5777 13869.78 4288060708
1244.8 5776.5898 13872.92 4288060708
1249.63 5777.5098 13873.73 4288060708
1077.39 5865.4702 13969.08 4288060708
1081.23 5861.0498 13962.37 4288060708
1085.1899 5857.3198 13953.63 4288060708
1088.55 5853.54 13950.06 4288060708
1092.05 5850.5 13942.69 4288060708
1096.65 5847.2002 13937.08 4288060708
1101.13 5843.2002 13933.51 4288060708
1104.8 5841.1401 13934.08 4288060708
1107.6899 5838 13931.8 4288060708
1121.17 5832.6699 13918.06 4288060708
1124.83 5830.6099 13918.63 4288060708
1127.6899 5824.4199 13909.36 4288060708
1135.6899 5817.9199 13899.8 4288060708
1140.47 5818.6602 13907.36 4288060708
1144.85 5817.3901 13900.9 4288060708
1148.53 5815.46 13898.14 4288060708
1153.1 5815.1602 13899.52 4288060708
1156.71 5809.98 13894.75 4288060708
1160.67 5806.6299 13892.56 4288060708
1164.98 5810.79 13883.83 4288060708
1172.71 5803.1299 13886.38 4288060708
1189.8199 5804.6299 13877.56 4288060708
1197.8 5798.3101 13877.89 4288060708
1204.78 5795.6602 13875.13 4288060708
1214.22 5796.4399 13872.23 4288060708
1221.75 5790.8599 13872.28 4288060708
1229.38 5785.8501 13873.69 4288060708
1236.16 5793.1299 13873.42 4288060708
1240.03 5792.2202 13875.08 4288060708
1081.96 5865 13944.02 4288060708
1086.58 5864.8301 13943.73 4288060708
1090.16 5862.2002 13942.92 4288060708
1093.78 5859.77 13937.03 4288060708
1098.1801 5855.3101 13928.66 4288060708
1102.65 5851.27 13925.01 4288060708
1106.21 5848.6299 13924.2 4288060708
1109.11 5845.5 13921.91 4288060708
1112.77 5840.3198 13917.16 4288060708
1118.3101 5841.9702 13916.02 4288060708
1122.61 5840.1802 13906.42 4288060708
1126.04 5836.8799 13905.9 4288060708
1129.8101 5835.4102 13907.84 4288060708
1133.9399 5832.73 13905.37 4288060708
1142.61 5826.6299 13898.95 4288060708
1146.91 5827.8198 13898.1 4288060708
1150.35 5824.7002 13892.49 4288060708
1154.58 5822.6201 13889.64 4288060708
1159.1 5819.0801 13889.11 4288060708
1162.99 5818.23 13890.78 4288060708
1167.53 5823.5 13886.55 4288060708
1192.75 5816.0601 13877.52 4288060708
1196.51 5814.6099 13877.81 4288060708
1198.99 5804.1001 13876.99 4288060708
1203.59 5806.6899 13872.25 4288060708
1205.98 5801.4502 13874.23 4288060708
1213 5810.02 13873.3 4288060708
1217.2 5807.8599 13872.2 4288060708
1220.96 5806.3901 13872.49 4288060708
1224.3199 5803.04 13871.96 4288060708
1231.72 5796.8398 13870.53 4288060708
1083.67 5874.2798 13938.35 4288060708
1091.34 5868.5298 13930.27 4288060708
1095.63 5866.5698 13925.75 4288060708
1100.02 5862.0601 13917.3 4288060708
1103.95 5858.1602 13913.73 4288060708
1110.75 5854.1699 13914.87 4288060708
1114.53 5849.5698 13911.5 4288060708
1120.51 5853.48 13901 4288060708
1124.62 5850.6201 13903.61 4288060708
1128.6 5847.1699 13903 4288060708
1131.49 5844.0601 13900.81 4288060708
1135.5 5840.7598 13896.87 4288060708
1140.4301 5839.2002 13895.49 4288060708
1144.1899 5834.6602 13890.45 4288060708
1148.6 5836.4302 13890.97 4288060708
1152.29 5834.5 13888.21 4288060708
1156.41 5831.8398 13883.99 4288060708
1161.05 5828.8799 13884.84 4288060708
1181.63 5824.25 13880.04 4288060708
1190.34 5829.8701 13878.57 4288060708
1194.88 5826.48 13872.97 4288060708
1198.66 5825.0298 13873.25 4288060708
1203.28 5824.8301 13871.3 4288060708
1207.74 5823.9102 13871.3 4288060708
1211.34 5824.4102 13874.15 4288060708
1219.73 5819.9702 13873.54 4288060708
1223.5 5818.5 13873.82 4288060708
1226.87 5815.1499 13873.3 4288060708
1230.1 5811.1499 13873.06 4288060708
1090.48 5882.7202 13929.25 4288060708
1092.51 5874.8101 13917.52 4288060708
1096.92 5873.46 13914.48 4288060708
1101.99 5872.52 13914.48 4288060708
1109.26 5864.75 13907.16 4288060708
1112.85 5862.1401 13904.6 4288060708
1116.74 5858.0898 13904.37 4288060708
1122.39 5863.2998 13896.71 4288060708
1126.95 5859.7002 13897.86 4288060708
1130.28 5855.8301 13895.95 4288060708
1133.16 5852.6699 13893.68 4288060708
1138.2 5851.6602 13895.43 4288060708
1142.34 5849 13891.21 4288060708
1146.46 5846.2402 13890.4 4288060708
1150.42 5845.6499 13885.31 4288060708
1154.5699 5846.04 13888.07 4288060708
1159.4 5843.9502 13883.65 4288060708
1166.9 5837.8101 13882.23 4288060708
1187.5699 5830.5898 13875.24 4288060708
1193.27 5841.3799 13876.85 4288060708
1197.13 5837.4502 13871.54 4288060708
1201.03 5836.5801 13873.2 4288060708
1218.0699 5834.3301 13874.29 4288060708
1222.05 5831 13870.44 4288060708
1082.8199 5891.8301 13921.1 4288060708
1087.22 5890.3398 13921.38 4288060708
1091.21 5886.6602 13910.98 4288060708
1094.5601 5885.8501 13916.07 4288060708
1103.83 5882.3501 13910.18 4288060708
1107.77 5878.4702 13904.86 4288060708
1111.79 5875.0498 13904.25 4288060708
1114.6 5871.3799 13898.93 4288060708
1118.39 5866.7402 13897.32 4288060708
1124.51 5874.3799 13893.6 4288060708
1128.83 5869.52 13893.56 4288060708
1132.17 5865.6401 13891.66 4288060708
1135.1801 5863.1001 13890.86 4288060708
1139.87 5860.2598 13888.29 4288060708
1144.48 5859.9702 13889.67 4288060708
1148.14 5854.8301 13883.26 4288060708
1156.39 5855.25 13882.4 4288060708
1161.1 5852.54 13876.51 4288060708
1164.95 5848.4502 13876.28 4288060708
1186.4 5844.8999 13874.33 4288060708
1189.79 5841.52 13873.72 4288060708
1195.15 5850.5698 13871.19 4288060708
1199.62 5849.5801 13872.85 4288060708
1203.97 5848.0098 13873.14 4288060708
1220.24 5844.71 13871.47 4288060708
1084.63 5901.6699 13916.79 4288060708
1088.9301 5899.6299 13913.94 4288060708
1093.36 5898.29 13910.9 4288060708
1096.96 5895.6201 13910 4288060708
1100.9301 5894.9502 13908.34 4288060708
1105.6801 5892.1699 13905.87 4288060708
1113.5601 5884.3599 13896.9 4288060708
1116.58 5881.7798 13896.01 4288060708
1120.83 5879.5801 13898.34 4288060708
1127.1801 5885.25 13892.05 4288060708
1130.61 5878.7402 13887.88 4288060708
1134.41 5877.27 13889.83 4288060708
1137.2 5873.5601 13886.27 4288060708
1141.78 5870.0601 13884 4288060708
1150.66 5867.6499 13884.29 4288060708
1176.3 5864.3398 13871.88 4288060708
1183.99 5856.0898 13873.08 4288060708
1188.74 5856.4102 13874.17 4288060708
1197.75 5863.29 13873.87 4288060708
1216.03 5846.9502 13870.9 4288060708
1086.45 5911.5498 13910.71 4288060708
1090.75 5909.4702 13909.62 4288060708
1095.0699 5907.5 13905.11 4288060708
1098.79 5905.4502 13905.69 4288060708
1102.21 5901.8198 13897.04 4288060708
1107.42 5901.4502 13898.42 4288060708
1111.71 5896.23 13892.02 4288060708
1115.41 5894.1699 13892.59 4288060708
1118.22 5890.4302 13888.94 4288060708
1122.47 5888.1899 13891.18 4288060708
1129.0601 5895.0601 13887.74 4288060708
1132.49 5888.5601 13883.57 4288060708
1140 5885 13886.1 4288060708
1148.5601 5880.8398 13882.25 4288060708
1165.5699 5875.0601 13874.9 4288060708
1169.45 5871.04 13873.01 4288060708
1173.8199 5869.4902 13873.29 4288060708
1178.62 5875.9102 13871.8 4288060708
1182.85 5873.6401 13874.04 4288060708
1186.58 5868.8901 13874.09 4288060708
1191.1 5868.0498 13872.43 4288060708
1194.5 5864.6401 13873.58 4288060708
1208.6 5870.5 13871.51 4288060708
1088.15 5920.7998 13905.01 4288060708
1092.23 5917.5098 13901.08 4288060708
1096.5699 5915.5698 13896.66 4288060708
1100.1801 5912.9102 13895.76 4288060708
1104.72 5912.1201 13894.1 4288060708
1109.61 5909.9902 13891.35 4288060708
1113.78 5907.2202 13890.45 4288060708
1117.15 5903.3599 13886.81 4288060708
1120.42 5902.0298 13888.85 4288060708
1124.46 5898.5801 13888.25 4288060708
1130.8199 5904.2798 13882.04 4288060708
1134.39 5898.4302 13877.59 4288060708
1139 5897.9702 13884.05 4288060708
1146.29 5893.27 13882.07 4288060708
1154.83 5885.96 13872.92 4288060708
1163.35 5887.5298 13874.81 4288060708
1172.08 5881.29 13870.07 4288060708
1181.63 5887.9502 13873.09 4288060708
1185.1801 5885.21 13873.95 4288060708
1188.5601 5878.6602 13869.79 4288060708
1193.5601 5880.1899 13873.72 4288060708
1094.27 5928.5601 13899.58 4288060708
1099.52 5928.3301 13897.63 4288060708
1101.9 5922.1401 13890.06 4288060708
1106.79 5923.1602 13892.61 4288060708
1119.24 5914.3799 13885.33 4288060708
1122.41 5912.5 13884.24 4288060708
1126.33 5908.3901 13883.93 4288060708
1133.04 5915.8799 13881.93 4288060708
1137.08 5912.4102 13883.08 4288060708
1140.54 5905.98 13875.51 4288060708
1143.5699 5903.4302 13874.71 4288060708
1148.09 5902.48 13876.38 4288060708
1153.1801 5901.4902 13876.38 4288060708
1157.1 5897.5 13872.73 4288060708
1161.3199 5898.1001 13870.49 4288060708
1165.64 5899.1099 13874.71 4288060708
1171.08 5899.8999 13878.93 4288060708
1174.5 5893.4502 13871.36 4288060708
1184.1801 5900.71 13875.73 4288060708
1187.51 5896.7798 13873.85 4288060708
1195.91 5891.7598 13873.62 4288060708
1096.3199 5936.48 13891.03 4288060708
1101.34 5938.1499 13893.3 4288060708
1108.51 5932.3501 13886.81 4288060708
1113.62 5931.3901 13886.81 4288060708
1117.6 5927.4902 13881.5 4288060708
1121.4301 5922.8701 13878.15 4288060708
1128.53 5916.9102 13876.85 4288060708
1134.9301 5925.71 13875.84 4288060708
1139.1801 5920.2998 13874.53 4288060708
1142.67 5916.98 13874.02 4288060708
1146.16 5916.7798 13878.73 4288060708
1150.67 5912.75 13873.43 4288060708
1155.09 5911.2798 13872.05 4288060708
1159.37 5909.0801 13872.63 4288060708
1167.9301 5910.6899 13874.6 4288060708
1173.16 5910.3301 13874.31 4288060708
1176.8101 5905.02 13871.25 4288060708
1189.61 5907.21 13869.23 4288060708
1098.48 5948.1699 13889.24 4288060708
1103.17 5947.98 13888.95 4288060708
1105.67 5942.4302 13881.09 4288060708
1110.24 5941.6401 13879.42 4288060708
1115.47 5941.2002 13882.47 4288060708
1123.75 5935.1299 13877.74 4288060708
1126.6899 5932 13875.57 4288060708
1130.75 5928.54 13874.97 4288060708
1137.49 5936.0298 13872.97 4288060708
1145.15 5929.8198 13874.99 4288060708
1148.1801 5927.23 13874.1 4288060708
1152.8101 5923.75 13871.93 4288060708
1157.47 5923.4502 13873.31 4288060708
1161.66 5920.73 13870.85 4288060708
1165.76 5920.6299 13868.8 4288060708
1170.22 5922.2998 13872.73 4288060708
1178.99 5915.98 13869.67 4288060708
1104.54 5955.3999 13879 4288060708
1108.3 5953.3501 13879.58 4288060708
1112.52 5953.8501 13880.67 4288060708
1117.21 5950.4902 13875.08 4288060708
1121.99 5947.6201 13874.28 4288060708
1125.5 5944.3398 13872.02 4288060708
1128.67 5942.3901 13872.6 4288060708
1132.62 5938.3398 13870.63 4288060708
1139.71 5947.6401 13872.83 4288060708
1143.65 5943.5 13874.28 4288060708
1147.04 5939.6099 13870.65 4288060708
1150.3101 5938.23 13872.6 4288060708
1155.4301 5937.1699 13874.27 4288060708
1160.1 5936.9102 13875.73 4288060708
1163.92 5932.2798 13870.63 4288060708
1169.21 5935.1299 13875.73 4288060708
1172.63 5934.48 13873.98 4288060708
1177.39 5931.6602 13869.76 4288060708
1181.0699 5926.4102 13865.04 4288060708
1110.45 5964.9302 13879.35 4288060708
1114.47 5964.25 13877.68 4288060708
1119.61 5963.2798 13877.68 4288060708
1124.4 5960.4199 13876.89 4288060708
1127.8101 5956.54 13873.26 4288060708
1132.21 5961.04 13874.35 4288060708
1135.1801 5951.75 13874.71 4288060708
1141.9301 5959.21 13872.59 4288060708
1146.23 5956.9302 13876.6 4288060708
1149.39 5951.7998 13871.88 4288060708
1154.03 5954.3599 13868.76 4288060708
1157.6801 5948.77 13874.13 4288060708
1162.13 5947.29 13872.76 4288060708
1166.76 5943.77 13870.5 4288060708
1099.78 5980.8999 13879.99 4288060708
1104.14 5978.7998 13878.9 4288060708
1117.1 5975.1699 13876.16 4288060708
1122.03 5972.98 13873.32 4288060708
1126.59 5972.0298 13876.74 4288060708
1129.89 5967.5601 13871.73 4288060708
1133.1899 5966.1899 13873.69 4288060708
1137.5 5963.9502 13875.94 4288060708
1144.63 5973.2798 13876.36 4288060708
1148.12 5966.73 13872.23 4288060708
1152.3101 5963.8901 13873.11 4288060708
1155.14 5960.1001 13869.48 4288060708
1159.59 5958.5601 13869.77 4288060708
1164.96 5958.7798 13872.61 4288060708
1101.92 5992.5298 13879.82 4288060708
1106.42 5987.9199 13873.16 4288060708
1111.59 5990.1899 13876.78 4288060708
1114.55 5986.96 13876.19 4288060708
1119.04 5985.5698 13873.16 4288060708
1124.21 5984.6001 13873.16 4288060708
1128.6801 5983.0801 13873.45 4288060708
1135.29 5977.2402 13870.4 4288060708
1139.03 5971.9399 13867.36 4288060708
1146.39 5982.4902 13870.61 4288060708
1150.92 5978.23 13872.07 4288060708
1157.74 5973.52 13873.53 4288060708
1104.53 6003.46 13878.27 4288060708
1109.12 6002.5498 13879.94 4288060708
1113.29 5999.3701 13870.93 4288060708
1116.72 5998.5801 13876.02 4288060708
1121.45 5998.4399 13874.06 4288060708
1126.5 5996.8198 13874.36 4288060708
1130.87 5994.7002 13873.28 4288060708
1134.75 5990.0498 13869.94 4288060708
1137.96 5988.1499 13868.86 4288060708
1115.6801 6012.23 13873.59 4288060708
1118.77 6009.6401 13872.71 4288060708
1123.51 6009.4302 13872.42 4288060708
1128.6899 6008.46 13872.42 4288060708
1140.5 6001.5498 13872.81 4288060708
1112.98 6023.4199 13872.23 4288060708
1117.61 6022.6299 13870.56 4288060708
