# .PCD v0.7 - Point Cloud Data file format
VERSION 0.7
FIELDS x y z rgb
SIZE 4 4 4 4
TYPE F F F U
COUNT 1 1 1 1
WIDTH 599
HEIGHT 1
VIEWPOINT 0 0 0 1 0 0 0
POINTS 599
DATA ascii
840.77002 5783.4502 13964.92 4287643836
845.90997 5787.6099 13972.75 4287643836
848.78998 5784.0801 13969.16 4287643836
854.77002 5793.8398 13968 4287643836
859.25 5793.4502 13976.13 4287643836
863.32001 5790.3198 13973.93 4287643836
906.90002 5789.21 13996.45 4287643836
841.79999 5790.5298 13951.95 4287643836
846.26001 5789.9702 13950.28 4287643836
850.59003 5796.3198 13942.39 4287643836
855.28003 5797.3501 13948.29 4287643836
859.34003 5794.0498 13949.42 4287643836
864.21002 5796.25 13958.18 4287643836
868.77002 5796.3599 13969.46 4287643836
872.5 5798.54 13981.55 4287643836
877.63 5798.5601 13964.63 4287643836
891.96997 5806.79 13983.51 4287643836
895.40002 5803.1299 13993.06 4287643836
838.13 5796.5098 13934.83 4287643836
842.57001 5795.7798 13936.49 4287643836
847.53003 5798.71 13943.21 4287643836
856.32001 5804.3599 13937.07 4287643836
860.82001 5804.0498 13943.54 4287643836
864.81 5800.2998 13939.86 4287643836
869.73999 5802.8599 13955.09 4287643836
873.03003 5802.04 13961.84 4287643836
879.03998 5807.9102 13959.02 4287643836
882.66998 5801.8101 13949.73 4287643836
892.22998 5808.4702 13974.44 4287643836
896.48999 5810.1602 13981.83 4287643836
839.35999 5801.0801 13917.99 4287643836
843.75 5803.9302 13928.04 4287643836
848.46997 5805.1299 13930.61 4287643836
851.71002 5803.98 13930.89 4287643836
857.62 5813.1602 13928.33 4287643836
862.03003 5812.2002 13935.08 4287643836
866.84998 5810.1299 13935.64 4287643836
870.53003 5808.0898 13939.63 4287643836
874.26001 5810.2002 13953.38 4287643836
879.58002 5811.4702 13937.65 4287643836
884.45001 5813.4902 13949.74 4287643836
889.06 5813.8301 13955.93 4287643836
893.22998 5815 13960.17 4287643836
897.65997 5817.75 13957 4287643836
902.56 5816.23 13973.92 4287643836
908.33002 5820.3101 13966.85 4287643836
925.73999 5825.4399 13983.43 4287643836
835.69 5811.0601 13914.04 4287643836
840.78998 5810.98 13913.77 4287643836
845.58002 5812.6099 13921.04 4287643836
849.65997 5813.27 13922.15 4287643836
853.34003 5815.0601 13929.43 4287643836
858.64001 5820.1401 13917.1 4287643836
862.79999 5817.4102 13919.61 4287643836
867.97998 5817.6899 13925.8 4287643836
872.28003 5819.75 13924.67 4287643836
875.15002 5816.0898 13937.63 4287643836
881.08002 5821.3701 13933.42 4287643836
885.34003 5819.3701 13933.99 4287643836
889.77002 5818.4399 13938.98 4287643836
894.40002 5822.5698 13950.31 4287643836
898.21002 5821.3101 13950.6 4287643836
903.20001 5820.3599 13953.92 4287643836
908.88 5823.8198 13960.36 4287643836
912.58002 5821.8901 13960.93 4287643836
917.42999 5827.1802 13960.14 4287643836
921.03003 5824.6299 13974.21 4287643836
926.29999 5829 13962.05 4287643836
931.57001 5829.6602 13973.04 4287643836
936.35999 5830.98 13985.41 4287643836
846.67999 5820.1699 13911.2 4287643836
851.34003 5820.8198 13910.64 4287643836
860.40002 5828.1802 13908.63 4287643836
864.47998 5824.8799 13909.76 4287643836
869.45001 5827.5898 13921.56 4287643836
872.88 5823.79 13921.31 4287643836
876.48999 5821.23 13922.15 4287643836
882.03998 5827.73 13920.71 4287643836
886.58002 5827.5 13925.52 4287643836
890.91998 5825.9902 13929.13 4287643836
895.09998 5827.1699 13933.36 4287643836
899.09998 5827.1001 13936.5 4287643836
904.82001 5830.7798 13937.85 4287643836
909.96997 5830.8101 13949.12 4287643836
913.96002 5830.6602 13939.04 4287643836
917.78998 5829.5 13950.78 4287643836
921.76001 5829.2598 13957.25 4287643836
928.15997 5837.0498 13953.57 4287643836
932.12 5833.1099 13953.32 4287643836
936.54999 5832.1802 13958.41 4287643836
940.40997 5834.7202 13976.96 4287643836
946.46002 5840.1499 13967.65 4287643836
950.25 5838.77 13969.6 4287643836
955.09998 5840.2998 13976.89 4287643836
843.5 5829.6802 13900.79 4287643836
848.12 5830.0601 13906.97 4287643836
852.78998 5830.73 13906.4 4287643836
857.21997 5837.6099 13899.87 4287643836
865.95001 5834.77 13905.53 4287643836
870.22998 5832.7798 13906.09 4287643836
874.01001 5831.3301 13911.46 4287643836
877.45001 5827.5801 13909.45 4287643836
884.01001 5836.96 13915.09 4287643836
887.82001 5835.6299 13917.04 4287643836
892.72998 5834.0698 13920.74 4287643836
896.82001 5834.6299 13923.5 4287643836
901.09003 5836.2998 13930.79 4287643836
905.63 5836.0601 13935.59 4287643836
910.59998 5834.8198 13930.79 4287643836
915.07001 5834.0801 13932.54 4287643836
918.97998 5837.0601 13940.92 4287643836
923.52002 5836.73 13947.38 4287643836
928.79999 5841.0898 13935.32 4287643836
933.22998 5840.0898 13942.07 4287643836
937.57001 5838.54 13945.69 4287643836
941.15997 5839.4102 13958.33 4287643836
947.01001 5843.5898 13947.93 4287643836
951.65997 5843.8901 13954.12 4287643836
956.41998 5844.8501 13960.02 4287643836
960.98999 5844.6499 13963.15 4287643836
964.42999 5844.5898 13966.2 4287643836
969.52002 5847.52 13971.25 4287643836
845.60999 5844.25 13892.91 4287643836
854.73999 5844.1099 13895.67 4287643836
862.79999 5844.4399 13891.77 4287643836
867.69 5846.52 13903.85 4287643836
871.79999 5843.3301 13901.56 4287643836
876.07001 5841.2202 13905.55 4287643836
879.12 5838.6699 13908.06 4287643836
885.06 5843.9102 13903.85 4287643836
894.25 5844.0098 13914.74 4287643836
898.42999 5845.1001 13920.64 4287643836
901.71002 5840.3198 13912.55 4287643836
907 5841.1699 13920.1 4287643836
911.78003 5842.3599 13920.92 4287643836
924.53003 5843.1201 13934.75 4287643836
930 5848.6299 13925.45 4287643836
934.34998 5847.0498 13930.82 4287643836
938.59998 5844.9302 13933.06 4287643836
942.56 5848.0601 13938.1 4287643836
948.33002 5851.71 13939.44 4287643836
952.79999 5850.8501 13942.86 4287643836
956.97998 5848.27 13940.29 4287643836
962.14001 5851.6602 13950.14 4287643836
965.67999 5852.1401 13956.32 4287643836
971.06 5853.29 13955.47 4287643836
975.81 5854.1099 13964.79 4287643836
980.20001 5852.7402 13963.32 4287643836
984.32001 5856.6699 13979.63 4287643836
988.03998 5854.77 13978.54 4287643836
850.58002 5846.9399 13889.73 4287643836
858.85999 5848.7798 13896.82 4287643836
868.81 5854.04 13893.98 4287643836
874.02002 5854.3301 13900.16 4287643836
877.28003 5849.3198 13897.07 4287643836
881.31 5853.2402 13900.16 4287643836
891.21002 5854.1602 13905.78 4287643836
895.21997 5850.3701 13902.11 4287643836
899.41998 5851.5498 13906.35 4287643836
903.59998 5852.5698 13913.91 4287643836
908.16998 5848.7002 13910.24 4287643836
913.22998 5851.6699 13915.29 4287643836
921.08002 5850.3701 13916.95 4287643836
925.98999 5852.3599 13914.15 4287643836
931.20001 5856.1499 13915.58 4287643836
936.40002 5856.3101 13923.42 4287643836
939.90002 5853.04 13924.56 4287643836
943.03003 5850.9902 13930.21 4287643836
949.65002 5859.8599 13931.03 4287643836
954.12 5858.9702 13934.36 4287643836
958.70001 5858.77 13937.5 4287643836
963.38 5859.2002 13940.26 4287643836
966.53003 5857.3198 13940.83 4287643836
972.21002 5860.2402 13944.21 4287643836
976.28003 5856.9399 13943.68 4287643836
981.08002 5858.0098 13946.16 4287643836
984.70001 5858.9302 13957.14 4287643836
989.32001 5862.3999 13966.99 4287643836
994.41998 5861.75 13961.9 4287643836
999.58002 5864.8701 13961.85 4287643836
856.78998 5858.1099 13886.38 4287643836
860.98999 5863.27 13890.58 4287643836
866.07001 5866.6001 13887.12 4287643836
870.27002 5863.9199 13889.73 4287643836
875.04999 5861.23 13888.82 4287643836
878.76001 5859.2202 13892.81 4287643836
881.90997 5857.2402 13896.7 4287643836
888.15997 5864.3301 13895.05 4287643836
892.71997 5864.0801 13899.76 4287643836
896.83002 5860.8301 13899.23 4287643836
900.47998 5858.4399 13895 4287643836
904.85999 5860.75 13903.75 4287643836
915.26001 5860.96 13907.98 4287643836
918.60999 5856.6699 13902.93 4287643836
923.20001 5860.2402 13911.02 4287643836
926.53998 5855.8599 13907.64 4287643836
932.77002 5866.0698 13909.56 4287643836
937.59998 5863.8301 13913.55 4287643836
941.66998 5860.4702 13914.69 4287643836
944.90002 5859 13921.72 4287643836
951.07001 5868.6201 13922.25 4287643836
955.45001 5867.1499 13924.2 4287643836
959.64001 5864.52 13923.39 4287643836
964.42999 5865.5601 13927.62 4287643836
967.67999 5864.27 13929.57 4287643836
973.56 5868.3501 13935.7 4287643836
978.12 5867.9902 13942.17 4287643836
982.72998 5867.8901 13941.88 4287643836
986.42999 5865.79 13945.88 4287643836
989.70001 5864.6001 13944.41 4287643836
994.59998 5862.8198 13951.44 4287643836
1000.76 5871.8198 13950.58 4287643836
1004.35 5869.0898 13953.1 4287643836
1007.7 5868.3901 13956.53 4287643836
858.96997 5869.0698 13884.88 4287643836
862.22998 5867.8398 13886.83 4287643836
868.01001 5875.8101 13881.47 4287643836
876.52002 5871.1001 13884.56 4287643836
880.25 5869.0898 13888.54 4287643836
883.32001 5866.6099 13889.4 4287643836
889.73999 5874.79 13892.16 4287643836
894.13 5873.3701 13894.11 4287643836
898.25 5870.1299 13893.59 4287643836
902.37 5870.6899 13896.35 4287643836
906.20001 5869.4302 13896.63 4287643836
911.53003 5870.3198 13904.28 4287643836
916.79999 5870.8501 13903.71 4287643836
924.57001 5868.96 13903.99 4287643836
928.29999 5866.9399 13906.23 4287643836
934.81 5875.27 13903.9 4287643836
939.09003 5873.1201 13907.89 4287643836
952 5874.3501 13908.13 4287643836
956.77002 5875.25 13915.69 4287643836
961.35999 5875.0498 13918.83 4287643836
965.85999 5874.2402 13920.49 4287643836
969.10999 5872.9399 13922.44 4287643836
974.71002 5875.29 13924.43 4287643836
979.15002 5870.6802 13921.06 4287643836
983.89001 5874.8301 13930.61 4287643836
987.29999 5870.96 13930.37 4287643836
991.42999 5871.46 13933.13 4287643836
995.89001 5870.4302 13939.88 4287643836
1001.94 5878.7598 13939.31 4287643836
1005.65 5876.6899 13941.55 4287643836
1008.99 5875.9199 13946.63 4287643836
1013.66 5876.04 13956.14 4287643836
1018.46 5876.96 13962.04 4287643836
1022.96 5876.1401 13963.79 4287643836
1027.33 5877.8501 13967.65 4287643836
1030.71 5877.2598 13967.65 4287643836
860.33002 5878.3599 13879.23 4287643836
865.22998 5888.2202 13879.76 4287643836
873.85999 5884.1699 13882.57 4287643836
878.44 5883.9702 13887.36 4287643836
881.81 5879.5498 13885.65 4287643836
885.64001 5878.1899 13889.36 4287643836
891.40997 5885.8398 13890.64 4287643836
895.19 5880.29 13882.85 4287643836
908.10999 5878.0498 13889.59 4287643836
912.41998 5876.04 13890.16 4287643836
917.88 5877.73 13892.35 4287643836
926.03003 5878.21 13898.25 4287643836
929.58002 5875.02 13897.72 4287643836
936 5882.77 13894.01 4287643836
940.38 5881.21 13899.39 4287643836
944.75 5879.6499 13904.75 4287643836
953.87 5882.3398 13899.62 4287643836
958.45001 5882.0698 13904.42 4287643836
963.25 5883.0498 13910.31 4287643836
968.06 5884.1001 13914.54 4287643836
971.21997 5882.2202 13915.11 4287643836
975.85999 5882.21 13913.16 4287643836
980.90997 5881.21 13916.49 4287643836
985.25 5882.9199 13922.1 4287643836
988.76001 5879.6401 13923.24 4287643836
993.20001 5881.9199 13930.23 4287643836
997.26001 5878.52 13931.37 4287643836
1002.82 5883.8999 13923.8 4287643836
1007.8 5885.8901 13935.88 4287643836
1009.98 5881.6499 13932.51 4287643836
1014.65 5881.7798 13942.01 4287643836
1018.84 5879.1699 13939.54 4287643836
1024.0601 5882.46 13951.04 4287643836
1028.33 5883.5898 13953.52 4287643836
1031.8199 5883.6201 13954.99 4287643836
1036.99 5883.23 13958.03 4287643836
856.90002 5886.4399 13871.02 4287643836
862.21002 5891.2002 13881.94 4287643836
866.84998 5899.2598 13878.23 4287643836
871.28003 5897.9302 13878.52 4287643836
875.40997 5894.6299 13879.66 4287643836
879.65997 5892.1299 13877.19 4287643836
887.13 5888.0601 13885.08 4287643836
893.03003 5892.6602 13879.38 4287643836
896.96002 5891.9502 13882.8 4287643836
901.84998 5889.8701 13883.36 4287643836
905.88 5889.77 13886.41 4287643836
909.54999 5887.3398 13883.94 4287643836
914.41998 5885.23 13884.51 4287643836
919.22998 5886.4302 13885.31 4287643836
924.10999 5888.0298 13892.58 4287643836
927.40002 5886.9102 13891.21 4287643836
932.07001 5887.1802 13899.05 4287643836
941.96002 5891.0698 13895.1 4287643836
946.06 5887.7998 13894.57 4287643836
949.02002 5884.5498 13897.38 4287643836
955.84998 5894.5801 13900.94 4287643836
960.06 5891.9399 13900.13 4287643836
964.65997 5891.71 13903.17 4287643836
968.90002 5889.2202 13899.04 4287643836
972.46002 5889.7202 13905.22 4287643836
978.35999 5893.8101 13911.34 4287643836
982.95001 5893.4502 13917.81 4287643836
986.21002 5888.6299 13907.98 4287643836
990.22998 5888.3799 13914.43 4287643836
994.07001 5887.0498 13914.72 4287643836
1004.5 5893.77 13919.51 4287643836
1008.58 5890.3999 13918.9 4287643836
1012.34 5892.02 13929.58 4287643836
1016.61 5889.8101 13933.58 4287643836
1020.34 5887.8398 13932.4 4287643836
1025.26 5889.3901 13939.76 4287643836
1029.79 5888.6401 13938 4287643836
1033.03 5890.5098 13943.61 4287643836
1038.52 5891.9502 13950.97 4287643836
858.59998 5898.1099 13870.96 4287643836
863.73999 5901.6602 13879.04 4287643836
872.73999 5907.7998 13874.23 4287643836
876.79999 5903.98 13872.33 4287643836
881.31 5903.1602 13875.66 4287643836
885.71002 5901.6602 13881.03 4287643836
888.44 5896.7202 13877.95 4287643836
894.70001 5903.73 13877.94 4287643836
899.03003 5901.73 13878.51 4287643836
907.58002 5900.8501 13884.97 4287643836
911.34003 5898.96 13883.78 4287643836
915.96002 5895.1001 13880.22 4287643836
920.96002 5897.46 13883.78 4287643836
925.57001 5897.3101 13886.92 4287643836
928.96002 5896.77 13886.92 4287643836
933.16998 5894.0801 13887.78 4287643836
943.82001 5902.73 13895.03 4287643836
947.84003 5898.8301 13893.04 4287643836
950.32001 5892.6201 13888.87 4287643836
961.66998 5901.7998 13895.84 4287643836
966.38 5902.2002 13900.35 4287643836
970.81 5900.8301 13898.88 4287643836
974.19 5900.1602 13902.3 4287643836
979.31 5899.5 13897.21 4287643836
983.90002 5899.1499 13903.68 4287643836
988.33002 5897.8101 13902.3 4287643836
991.98999 5898.8701 13911.61 4287643836
995.84003 5897.5801 13910.14 4287643836
1000.01 5894.73 13914.42 4287643836
1006.46 5901.8198 13909.32 4287643836
1010.27 5900.2598 13914.6 4287643836
1013.64 5899.5801 13918.01 4287643836
1017.7 5896.1001 13920.83 4287643836
1026.37 5895.7598 13925.34 4287643836
1031.11 5896.21 13926.43 4287643836
1034.61 5896.2002 13927.81 4287643836
1039.22 5895.8799 13932.61 4287643836
860.38 5910.3599 13872.28 4287643836
865.19 5911.6099 13873.08 4287643836
868.40002 5909.79 13873.66 4287643836
874.56 5920.1299 13873.87 4287643836
878.71002 5916.8198 13875.02 4287643836
883.53003 5914.1699 13874.21 4287643836
887.19 5911.5298 13876.73 4287643836
896.47998 5915.4302 13876.11 4287643836
900.62 5912.1899 13875.58 4287643836
904.87 5909.6001 13874.78 4287643836
909.20001 5911.3799 13880.38 4287643836
912.96002 5909.4502 13880.96 4287643836
918.22998 5909.7598 13885.38 4287643836
922.70001 5908.6099 13880.67 4287643836
927.02002 5906.5801 13881.24 4287643836
930.60999 5907.29 13882.33 4287643836
945.40002 5908.98 13880.62 4287643836
949.32001 5904.4199 13878.91 4287643836
952.76001 5904.1802 13888.8 4287643836
958.85999 5913.1602 13887.82 4287643836
963.17999 5911.1099 13888.4 4287643836
972.14001 5908.9302 13890.44 4287643836
975.21997 5906.4502 13889.54 4287643836
981.03998 5909.9399 13894.29 4287643836
985.25 5907.23 13895.14 4287643836
989.98999 5907.7402 13896.33 4287643836
993.90997 5906.8398 13903.08 4287643836
997.10999 5905.0601 13900.23 4287643836
1002.15 5903.9102 13908.74 4287643836
1007.62 5908.6699 13897.94 4287643836
1011.65 5908.3701 13906.16 4287643836
1014.93 5907.0698 13908.11 4287643836
1019 5903.6602 13909.26 4287643836
1023.61 5903.3501 13914.06 4287643836
1027.88 5904.4102 13918.19 4287643836
870.10999 5921.46 13873.58 4287643836
876.19 5931.1802 13872.31 4287643836
880.26001 5927.2798 13872.09 4287643836
885.35999 5926.4302 13875.5 4287643836
888.76001 5921.98 13873.81 4287643836
891.78003 5918.9102 13873.29 4287643836
898.06 5925.8799 13873.18 4287643836
902.14001 5922.1299 13869.62 4287643836
906.46997 5920.04 13871.86 4287643836
914.59003 5919.9702 13876.37 4287643836
919.58002 5918.4502 13878.32 4287643836
924.81 5918.3799 13876.37 4287643836
928.75 5917.6201 13879.7 4287643836
932.91998 5918.2402 13880.79 4287643836
936.48999 5915.0498 13880.27 4287643836
942.38 5922.8701 13876.54 4287643836
947.27002 5920.6299 13880.53 4287643836
951.28003 5916.6602 13880.21 4287643836
954.34998 5914.04 13884.5 4287643836
960.27002 5921.8398 13880.76 4287643836
965.08002 5922.7598 13888.31 4287643836
969.60999 5921.9502 13889.98 4287643836
973.96002 5919.96 13888.89 4287643836
977.04999 5917.5098 13888.08 4287643836
982.78003 5920.4199 13891.45 4287643836
986.98999 5917.71 13892.3 4287643836
991.44 5916.3901 13889.17 4287643836
995.37 5915.48 13895.92 4287643836
998.66998 5914.3198 13894.54 4287643836
1009.51 5919.73 13896.47 4287643836
1013.24 5917.6099 13900.37 4287643836
1020.8 5914.0898 13906.32 4287643836
1025.4399 5913.8599 13909.46 4287643836
1029.55 5910.6201 13905.52 4287643836
1033.9399 5912.3799 13909.46 4287643836
1037.65 5913.54 13913.59 4287643836
894.10999 5930.4902 13873.21 4287643836
904 5934.3799 13870.9 4287643836
916.47998 5932.2202 13877.65 4287643836
921.02002 5927.7202 13872.63 4287643836
926.25 5927.6099 13870.59 4287643836
930.29999 5927.4702 13875.39 4287643836
934.66998 5929.3101 13879.32 4287643836
938.04999 5924.8999 13875.96 4287643836
944.60999 5933.2202 13873.6 4287643836
948.73999 5929.8701 13874.75 4287643836
953.25 5928.9102 13881.5 4287643836
955.84998 5923.2998 13878.81 4287643836
962.23999 5930.3799 13873.6 4287643836
966.5 5931.4399 13881.24 4287643836
971.03998 5930.6299 13882.91 4287643836
975.39001 5928.6699 13880.06 4287643836
979.54999 5929.1001 13886.23 4287643836
984.51001 5930.8599 13888.5 4287643836
989.40002 5928.6401 13890.74 4287643836
997.33002 5927.1299 13895.83 4287643836
1000.9 5924.0801 13890.23 4287643836
1005.4 5923.0601 13896.98 4287643836
1011.19 5929.5801 13892.15 4287643836
1015.19 5925.6001 13891.92 4287643836
1018.41 5927.3599 13900.85 4287643836
1022.3 5922.77 13899.25 4287643836
1026.83 5921.9199 13900.92 4287643836
1031.16 5919.8799 13899.83 4287643836
1035.45 5921.02 13902.29 4287643836
1039.0699 5921.6299 13905.14 4287643836
1043.5 5920.1802 13905.43 4287643836
910.97998 5945.71 13875.51 4287643836
914.78003 5943.8501 13874.42 4287643836
918.84998 5943.7598 13877.46 4287643836
922.83002 5939.3398 13872.44 4287643836
928.26001 5940.48 13873.34 4287643836
939.98999 5937.1499 13877.24 4287643836
950.51001 5940.9399 13873.27 4287643836
954.94 5939.3901 13878.64 4287643836
957.83002 5935.5801 13878.33 4287643836
964.22998 5942.6299 13874.87 4287643836
968.57001 5940.5801 13875.44 4287643836
973.32001 5940.9902 13879.95 4287643836
977.96997 5940.8301 13881.33 4287643836
980.88 5937.1802 13877.78 4287643836
985.96002 5939.5801 13879.66 4287643836
990.84998 5937.3398 13881.91 4287643836
998.47998 5934.0098 13884.53 4287643836
1002.47 5933.3301 13884.53 4287643836
1006.88 5931.7402 13889.91 4287643836
1012.77 5938.8398 13886.44 4287643836
1017.19 5937.2798 13890.06 4287643836
1019.9 5936.0298 13893.77 4287643836
1024.36 5931.3101 13892.08 4287643836
1028.33 5930.5498 13893.75 4287643836
1037.0699 5930.2798 13896.59 4287643836
1040.6899 5930.8501 13899.34 4287643836
1050.9 5932.1899 13904.65 4287643836
942.12 5946.9102 13872.92 4287643836
952.57001 5953.7798 13875.91 4287643836
956.63 5949.8901 13874.02 4287643836
959.79999 5947.8198 13879.6 4287643836
966.21002 5954.8701 13876.13 4287643836
970.28003 5951.0601 13872.58 4287643836
974.83002 5950.2402 13874.24 4287643836
982.79999 5948.79 13877.57 4287643836
988.26001 5949.9199 13876.71 4287643836
992.59998 5947.8101 13879.04 4287643836
1000.25 5944.5098 13879.91 4287643836
1004.34 5944.4199 13881.29 4287643836
1014.25 5947.5298 13877.6 4287643836
1018.57 5945.3101 13881.5 4287643836
1026.16 5941.7402 13889.12 4287643836
1030.04 5940.3901 13889.41 4287643836
1034.48 5938.9399 13889.7 4287643836
1039.37 5940.0898 13890.59 4287643836
1042.21 5939.52 13892.26 4287643836
1047.22 5937.96 13892.55 4287643836
1052.4301 5940.8599 13897.56 4287643836
1056.99 5940.0498 13897.56 4287643836
954.53003 5962.3799 13867.06 4287643836
958.5 5961.5098 13873.81 4287643836
967.71997 5964.1299 13870.42 4287643836
972.19 5962.7402 13870.7 4287643836
976.53998 5960.6802 13871.28 4287643836
989.79999 5959.1699 13870.99 4287643836
994.54999 5959.4702 13878.92 4287643836
998.82001 5956.9199 13872.94 4287643836
1006.1 5954.8501 13878.32 4287643836
1010.32 5952.0098 13882.61 4287643836
1016.91 5959.6602 13878.85 4287643836
1020.87 5958.77 13885.6 4287643836
1023.86 5955.6499 13883.34 4287643836
1032.0699 5952.1001 13887.63 4287643836
1036.3 5949.4102 13886.83 4287643836
1041.09 5949.9199 13886.25 4287643836
1044.73 5950.5 13889 4287643836
1049.16 5948.9702 13890.96 4287643836
1053.85 5948.8901 13889 4287643836
1058.84 5950.48 13894.6 4287643836
963.75 5968.6499 13873.76 4287643836
970.01001 5978.27 13874.2 4287643836
974.28998 5975.6201 13873.41 4287643836
978.54999 5972.9302 13872.53 4287643836
982.83002 5970.3599 13868.31 4287643836
986.04999 5968.48 13868.89 4287643836
996.28998 5969.8999 13875.95 4287643836
1000.67 5967.98 13871.44 4287643836
1007.87 5965.3198 13875.44 4287643836
1012.46 5961.1602 13876.89 4287643836
1018.79 5970.7002 13877.24 4287643836
1022.56 5968.6099 13881.25 4287643836
1025.45 5964.8901 13877.61 4287643836
1029.67 5962.0698 13880.15 4287643836
1034.45 5962.4302 13884.66 4287643836
1043.02 5960.9399 13884.66 4287643836
1046.25 5959.1499 13881.91 4287643836
1051.12 5960.0898 13887.79 4287643836
1060.38 5959.1299 13887.5 4287643836
1069.21 5965.6099 13885.67 4287643836
985.26001 5985.0801 13873.47 4287643836
1002.83 5980.8101 13874.05 4287643836
1011.5 5983.3101 13875.73 4287643836
1014.65 5974.0601 13877.84 4287643836
1020.58 5981.1602 13874.35 4287643836
1024.34 5979.0298 13878.26 4287643836
1027.24 5975.3101 13874.63 4287643836
1040.52 5970.2202 13879.22 4287643836
1048.28 5970.7598 13881.68 4287643836
1062.34 5970.1401 13885.89 4287643836
1012.28 5987.8999 13873.69 4287643836
1016.32 5983.8999 13873.48 4287643836
1022.36 5991.5898 13871.36 4287643836
1029.04 5985.7798 13871.73 4287643836
1033.28 5982.96 13874.28 4287643836
1037.76 5981.5 13874.57 4287643836
1042.33 5980.6401 13876.23 4287643836
1046.5601 5981.1899 13877.32 4287643836
1050.01 5980.5898 13877.32 4287643836
1055.37 5980.8398 13881.82 4287643836
1014.04 5998.3198 13870.7 4287643836
1018.5 5996.7402 13876.08 4287643836
1035.98 5995.1602 13873.83 4287643836
1039.67 5992.52 13872.95 4287643836
1048.4 5991.6699 13872.65 4287643836
1057 5990.0698 13876.08 4287643836
1062.03 5991.7598 13878.24 4287643836
1075.17 5995.5698 13873.94 4287643836
1079.86 5995.25 13878.74 4287643836
1041.7 6004.23 13871.11 4287643836
1046.5 6004.5498 13877.28 4287643836
1051.54 6006.23 13879.45 4287643836
1054 6003.3101 13873.86 4287643836
1058.84 6000.5 13873.07 4287643836
1063.89 6002.2202 13875.33 4287643836
1068.38 6000.77 13873.86 4287643836
1048.53 6016.2202 13875.34 4287643836
1053.96 6020.0498 13871.63 4287643836
1057.21 6018.25 13868.89 4287643836
1071.28 6017.0601 13869.97 4287643836
1074.05 6009.2002 13871.52 4287643836
1079.13 6017.6802 13869.09 4287643836
1083.83 6017.3101 13875.55 4287643836
1088.22 6011.9199 13872.51 4287643836
1076.12 6020.7998 13871.24 4287643836
1090.77 6025.9902 13877.91 4287643836
