# .PCD v0.7 - Point Cloud Data file format
VERSION 0.7
FIELDS x y z rgb
SIZE 4 4 4 4
TYPE F F F U
COUNT 1 1 1 1
WIDTH 262
HEIGHT 1
VIEWPOINT 0 0 0 1 0 0 0
POINTS 262
DATA ascii
-697.67999 7356.4702 14112.87 4278767461
-704.81 7378.9199 14102.49 4278767461
-698.16998 7361.5801 14060.27 4278767461
-711.56 7389.77 14093.08 4278767461
-704.41998 7374.8599 14070.17 4278767461
-697.94 7359.1602 14042.56 4278767461
-719.03998 7407.7998 14103.92 4278767461
-712.46997 7399.1499 14086.41 4278767461
-704.37 7374.3101 14044.58 4278767461
-725.69 7417.2202 14093.43 4278767461
-718.5 7402.27 14068.86 4278767461
-711.65997 7390.77 14045.97 4278767461
-732.58002 7435.9902 14102.2 4278767461
-726.06 7420.9199 14075.96 4278767461
-718.37 7400.9702 14041.95 4278767461
-737.85999 7438.4902 14083.39 4278767461
-733.17999 7442.0698 14100.65 4278767461
-725.78003 7418.1299 14044.62 4278767461
-746.07001 7463 14109.64 4278767461
-738.78998 7447.8198 14076.6 4278767461
-745.94 7461.6499 14081.02 4278767461
-738.71997 7454.3999 14064.51 4278767461
-753.10999 7475.46 14083.74 4278767461
-745.37 7463.2202 14059.48 4278767461
-761.10999 7497.21 14104.63 4278767461
-753.54999 7479.8101 14067.58 4278767461
-765.78998 7500.3501 14085.36 4278767461
-761.40997 7500.1201 14085.72 4278767461
-753.77002 7481.9902 14047.35 4278767461
-772.37 7514.9102 14087.68 4278767461
-766.22998 7504.6899 14069.18 4278767461
-779.84003 7530.7998 14092.63 4278767461
-771.70001 7508.3701 14049.55 4278767461
-788.21997 7555.2002 14110.22 4278767461
-780.35999 7535.8301 14077.76 4278767461
-794.40002 7558.1802 14091.01 4278767461
-786.71997 7540.7998 14059.07 4278767461
-793.94 7553.7998 14058.62 4278767461
-801.60999 7584.8701 14109.23 4278767461
-808.71997 7596.4302 14106.01 4278767461
-799.77002 7567.4902 14052.74 4278767461
-815.77002 7607.1602 14096.41 4278767461
-808.40997 7593.4702 14076.34 4278767461
-823.22998 7621.6401 14100.22 4278767461
-815.21002 7601.9902 14062.7 4278767461
-822.81 7624.5698 14081.35 4278767461
-822.79999 7624.4399 14057.05 4278767461
-842.46002 7661.98 14106.84 4278767461
-835.08002 7648.7998 14081.39 4278767461
-842.91998 7666.1499 14088.81 4278767461
-834.65997 7645.02 14050.41 4278767461
-851.21997 7687.3701 14108.11 4278767461
-858.79999 7701.77 14108.47 4278767461
-850.23999 7678.46 14067.75 4278767461
-864.69 7714.3799 14110.01 4278767461
-858.53998 7699.4502 14080.2 4278767461
-851.02002 7685.5898 14056.85 4278767461
-870.90997 7723.02 14099.65 4278767461
-864.42999 7711.9902 14081.65 4278767461
-878.78998 7739.5601 14102.31 4278767461
-871.13 7725.02 14079.35 4278767461
-863.83002 7706.6802 14048.06 4278767461
-886.53003 7754.6802 14103.92 4278767461
-878.19 7740.9302 14080.69 4278767461
-871.27002 7726.2202 14056.06 4278767461
-885.65997 7747.1201 14066.29 4278767461
-877.65997 7736.25 14048.32 4278767461
-894.96002 7775.5698 14112.81 4278767461
-886.06 7757.2002 14059 4278767461
-900.67999 7785.8501 14089.38 4278767461
-893.83002 7765.77 14071.16 4278767461
-907.12 7795.6299 14092.26 4278767461
-901.03998 7789 14082.36 4278767461
-894.40002 7770.7002 14056.28 4278767461
-907.52002 7799.0698 14074.65 4278767461
-899.25 7779.9302 14042.04 4278767461
-923.52002 7831.9199 14107.85 4278767461
-916.28003 7815.6401 14080.58 4278767461
-907.04999 7795.0098 14042 4278767461
-931.25 7845.6899 14110.11 4278767461
-924.01001 7836.02 14091.44 4278767461
-915.06 7811.71 14049.62 4278767461
-938.52002 7861.8999 14118.15 4278767461
-932.01001 7852.0698 14097.8 4278767461
-924.14001 7837.1899 14069.8 4278767461
-916.06 7820.1802 14039.57 4278767461
-937.90997 7863.1699 14096.5 4278767461
-931.34998 7846.52 14064.13 4278767461
-923.92999 7835.3701 14042.85 4278767461
-945.96997 7879.3999 14107.9 4278767461
-937.67999 7861.2998 14069.45 4278767461
-932.44 7855.77 14055.45 4278767461
-955.23999 7898.9702 14119.05 4278767461
-945.89001 7885.0698 14094.17 4278767461
-963.34998 7915.1001 14127.04 4278767461
-953.98999 7894.98 14088.08 4278767461
-944.40997 7872.7798 14048.57 4278767461
-963.31 7914.7402 14102.66 4278767461
-954.39001 7898.2798 14068.74 4278767461
-945.15997 7879.0298 14034.57 4278767461
-969.64001 7922.4399 14089.17 4278767461
-962.97998 7912.02 14072.61 4278767461
-976.69 7942.1802 14096.89 4278767461
-969.65002 7928.8101 14076.73 4278767461
-961.44 7905.75 14037.74 4278767461
-985.32001 7961.9302 14109.65 4278767461
-977.09003 7945.46 14079.14 4278767461
-969.14001 7924.7002 14045.85 4278767461
-993.40002 7977.04 14109.41 4278767461
-984.60999 7956.21 14074.38 4278767461
-976.66998 7942.0498 14049.57 4278767461
-993.90002 7981.0498 14092.94 4278767461
-984.54999 7955.73 14050.03 4278767461
-1002.73 7995.6699 14113.98 4278767461
-993.19 7975.3398 14059.38 4278767461
-1009.22 8010.1099 14110.62 4278767461
-1003.14 7998.98 14096.29 4278767461
-1017.1 8023.0801 14109.72 4278767461
-1009.07 8008.9399 14072.57 4278767461
-1003.37 8000.75 14075.91 4278767461
-1017.13 8023.3101 14086.64 4278767461
-1008.79 8006.75 14056.2 4278767461
-1003.67 8003.1699 14055.15 4278767461
-1026.0601 8044.2998 14095.13 4278767461
-1016.29 8022.7998 14060.58 4278767461
-1035.27 8067.1802 14113.12 4278767461
-1027.25 8053.6099 14088 4278767461
-1034.91 8064.3999 14084.84 4278767461
-1043.01 8078.3599 14090.33 4278767461
-1049.86 8094.8101 14099.8 4278767461
-1042.9301 8077.77 14065.96 4278767461
-1057.1 8107.9399 14100.5 4278767461
-1048.8 8086.6099 14062.18 4278767461
-1057.71 8112.5801 14083.67 4278767461
-1065.87 8126.5601 14089.11 4278767461
-1058.23 8116.54 14067.24 4278767461
-1075.79 8147.6401 14100.84 4278767461
-1066.1899 8128.9702 14070 4278767461
-1084.28 8169.6802 14112.22 4278767461
-1074.73 8145.6099 14073.85 4278767461
-1089.41 8172.3301 14096.16 4278767461
-1083.28 8162.1602 14075.99 4278767461
-1074.4399 8143.4302 14046.87 4278767461
-1098.52 8192.6396 14103.13 4278767461
-1090.65 8181.6201 14088.93 4278767461
-1084.01 8167.6299 14062.22 4278767461
-1107.6899 8213.25 14115.24 4278767461
-1098.01 8188.8901 14073.47 4278767461
-1090.05 8177.1299 14057.97 4278767461
-1108.3101 8217.79 14098.28 4278767461
-1098.4301 8192.0303 14055.72 4278767461
-1116.97 8234.3799 14100.34 4278767461
-1107.9 8214.8096 14070 4278767461
-1124.08 8245.2305 14097.03 4278767461
-1117.8199 8240.5898 14087.81 4278767461
-1131.76 8260.1201 14116.04 4278767461
-1124.71 8249.8799 14081.83 4278767461
-1133.03 8269.4199 14108.75 4278767461
-1117.1801 8235.9199 14055.18 4278767461
-1139.99 8278.8799 14106.13 4278767461
-1132.39 8264.7695 14065.39 4278767461
-1125.12 8252.8496 14062.28 4278767461
-1117.1801 8235.8799 14032.08 4278767461
-1140.9301 8285.75 14093.18 4278767461
-1131.6899 8265.5596 14054.28 4278767461
-1124.7 8249.75 14011 4278767461
-1119.37 8252.0195 14013.58 4278767461
-1158.23 8316.9297 14110.64 4278767461
-1149.65 8301.9297 14100.63 4278767461
-1140.8199 8284.9502 14068.77 4278767461
-1131.91 8267.1104 14033.93 4278767461
-1107.22 8263.5898 14014.82 4278767461
-1165.04 8330.7402 14109.03 4278767461
-1158.1 8316.0303 14084.53 4278767461
-1149.33 8299.6104 14073.64 4278767461
-1165.9 8336.9297 14096.46 4278767461
-1158.64 8319.8604 14068.01 4278767461
-1150.28 8306.4502 14049.96 4278767461
-1173.74 8352.0303 14106.44 4278767461
-1166.22 8339.1797 14077.27 4278767461
-1158.41 8318.2402 14042.31 4278767461
-1150.28 8306.4902 14039.34 4278767461
-1182.37 8372.7002 14116.54 4278767461
-1173.73 8352 14083.38 4278767461
-1159.26 8324.3701 14029.75 4278767461
-1190.4399 8383.4199 14113.12 4278767461
-1181.6 8367.21 14084.31 4278767461
-1174.26 8355.7598 14066.77 4278767461
-1165.87 8336.7197 14037.96 4278767461
-1190.99 8387.2402 14096.57 4278767461
-1181.47 8366.3203 14059.88 4278767461
-1174.58 8358.0195 14047.67 4278767461
-1200.4 8407.2305 14108.72 4278767461
-1191.53 8391.04 14080.02 4278767461
-1200.39 8407.1504 14085.66 4278767461
-1191.38 8390.0195 14053.91 4278767461
-1215.53 8437.9902 14112.3 4278767461
-1201.15 8412.46 14071.67 4278767461
-1214.83 8433.1699 14081.36 4278767461
-1216.03 8441.5 14070.89 4278767461
-1225.2 8459.1396 14098.8 4278767461
-1235.1801 8482.2002 14114.38 4278767461
-1225.4 8460.54 14078.29 4278767461
-1243.3199 8492.4297 14104 4278767461
-1235.02 8481.1396 14088.24 4278767461
-1226.04 8464.9502 14061.31 4278767461
-1243.72 8495.1797 14073.62 4278767461
-1235.11 8481.7305 14066.44 4278767461
-1252.3199 8519.71 14106.31 4278767461
-1244.29 8499.0801 14069.45 4278767461
-1261.5 8536.6699 14102.51 4278767461
-1251.92 8517.0098 14066.96 4278767461
-1261.7 8538.0303 14092.63 4278767461
-1251.91 8516.9297 14056.22 4278767461
-1271.1801 8556.7002 14103.8 4278767461
-1259.8101 8525.1904 14048.75 4278767461
-1280.05 8571.21 14095.95 4278767461
-1270.0699 8549.2402 14058.21 4278767461
-1287.9399 8584.6104 14110.32 4278767461
-1279.78 8569.4502 14080.96 4278767461
-1270.27 8550.6299 14048.42 4278767461
-1289.66 8596.0498 14094.27 4278767461
-1280.45 8573.9102 14065.62 4278767461
-1297.41 8608.3096 14102.18 4278767461
-1289.77 8596.79 14084.88 4278767461
-1298.8 8617.5498 14094.64 4278767461
-1289.6 8595.6699 14060.42 4278767461
-1305.85 8625.0703 14066.1 4278767461
-1298.04 8612.4902 14063.71 4278767461
-1317.61 8652.2695 14109.28 4278767461
-1297.99 8612.1602 14040.62 4278767461
-1318.17 8655.9297 14092.62 4278767461
-1306.5 8629.3701 14049.04 4278767461
-1327.3101 8671.2998 14096.68 4278767461
-1318.85 8660.4102 14077.32 4278767461
-1335.64 8692.29 14106.41 4278767461
-1327.51 8672.5801 14076.2 4278767461
-1317.9301 8654.4102 14045.05 4278767461
-1345.15 8709.6797 14109.17 4278767461
-1335.22 8689.54 14079.39 4278767461
-1344.7 8706.75 14080.36 4278767461
-1355.79 8734.1299 14103.76 4278767461
-1344.89 8707.9805 14059.87 4278767461
-1365.34 8751.3896 14104.78 4278767461
-1355.88 8740.29 14090.97 4278767461
-1364.53 8746.1699 14073.85 4278767461
-1375.6801 8773.4697 14095.48 4278767461
-1366.0699 8756.04 14065.79 4278767461
-1383.17 8788.21 14096.45 4278767461
-1375.23 8770.6201 14068.46 4278767461
-1393.15 8807.5996 14106.78 4278767461
-1383.98 8793.3604 14082.27 4278767461
-1393.1801 8807.8301 14083.21 4278767461
-1383.53 8790.4697 14055.25 4278767461
-1403.62 8829.9102 14100.79 4278767461
-1393.73 8811.3203 14066.41 4278767461
-1404.9301 8838.1504 14090.05 4278767461
-1415.1801 8858.8496 14106.84 4278767461
-1404.08 8832.8301 14059.23 4278767461
-1415.23 8859.1504 14084.95 4278767461
-1414.37 8853.75 14054.05 4278767461
-1423.92 8875.2998 14062.99 4278767461
