# .PCD v0.7 - Point Cloud Data file format
VERSION 0.7
FIELDS x y z rgb
SIZE 4 4 4 4
TYPE F F F U
COUNT 1 1 1 1
WIDTH 744
HEIGHT 1
VIEWPOINT 0 0 0 1 0 0 0
POINTS 744
DATA ascii
-299.14001 7180.8501 14205.02 4279017953
-305.28 7179.1899 14198.9 4279017953
-299.56 7191.0601 14199.85 4279017953
-293.54999 7179 14195.88 4279017953
-288.17999 7182.6602 14202.66 4279017953
-284.10001 7184.1802 14201.97 4279017953
-278.75 7188.4902 14198.21 4279017953
-267.85001 7192.3398 14203.31 4279017953
-262.31 7191.8701 14203.66 4279017953
-315.48001 7207.5298 14206.63 4279017953
-310.45999 7203.5698 14200.11 4279017953
-305.85999 7192.8198 14198.82 4279017953
-299.38 7203.3599 14198.78 4279017953
-294.47 7201.52 14201.5 4279017953
-288.92001 7201.0601 14200.16 4279017953
-284.59 7196.46 14200.9 4279017953
-279.01001 7195.3198 14199.9 4279017953
-273.73001 7201.6602 14200.16 4279017953
-267.60999 7204.6499 14202.23 4279017953
-262.73001 7203.4302 14201.15 4279017953
-326.53 7206.9902 14199.82 4279017953
-320.91 7205.21 14200.85 4279017953
-315.92001 7217.73 14201.44 4279017953
-311.17001 7219.98 14205.45 4279017953
-306.70001 7212.6299 14200.76 4279017953
-299.98001 7217.73 14201.79 4279017953
-294.72 7207.6899 14201.84 4279017953
-289.23999 7209.2598 14202.84 4279017953
-285.07001 7208.75 14199.82 4279017953
-279.54001 7208.96 14201.5 4279017953
-273.92999 7207.1001 14199.08 4279017953
-268.14999 7218.98 14203.47 4279017953
-263.17999 7215.71 14200.07 4279017953
-332.16 7223.8101 14201.35 4279017953
-326.42999 7219.98 14200.06 4279017953
-321.14001 7225.6699 14202.34 4279017953
-311.67001 7231.5898 14203.02 4279017953
-306.98999 7219.48 14200.75 4279017953
-300.51999 7230.6499 14200.25 4279017953
-294.64001 7222.7202 14204.41 4279017953
-289.67999 7220.1499 14198.98 4279017953
-284.94 7223.1001 14202.74 4279017953
-280.12 7223.9702 14204.07 4279017953
-273.70999 7219.4102 14197.99 4279017953
-268.60001 7231.27 14202.38 4279017953
-263.63 7228 14198.97 4279017953
-259.39999 7226.1099 14200.01 4279017953
-342 7241.1699 14200.92 4279017953
-336.95001 7237.27 14199.55 4279017953
-332.69 7235.4199 14198.91 4279017953
-327.07999 7234.3198 14202.96 4279017953
-321.41 7231.8501 14202.67 4279017953
-316.85001 7238.8999 14204.34 4279017953
-312.26001 7245.2402 14204.58 4279017953
-306.85001 7232.48 14200.98 4279017953
-300.97 7241.5801 14196.47 4279017953
-295.17001 7235.7402 14204.73 4279017953
-290.23001 7233.8501 14200.64 4279017953
-285.51001 7237.48 14204.05 4279017953
-280.57999 7235.5898 14201.63 4279017953
-274.28 7234.4702 14200.64 4279017953
-269.06 7243.5601 14201.26 4279017953
-263.53 7244.4502 14204.29 4279017953
-259.84 7238.3999 14198.91 4279017953
-253.57001 7237.9399 14202.62 4279017953
-247.92 7235.3799 14198.86 4279017953
-232.36 7248.25 14202.89 4279017953
-342.67999 7255.5 14202.12 4279017953
-337.75 7254.4199 14207.96 4279017953
-333.35001 7249.75 14201.8 4279017953
-327.60999 7245.9302 14200.51 4279017953
-322.47 7255.7002 14199.01 4279017953
-317.63 7256.6401 14200.43 4279017953
-312.67001 7254.7598 14198.02 4279017953
-307.39999 7245.4502 14201.21 4279017953
-301.57001 7255.9199 14199.36 4279017953
-295.60999 7246.6201 14200.86 4279017953
-290.07999 7247.5298 14202.2 4279017953
-285.97 7249.0601 14201.5 4279017953
-281.03 7247.2002 14199.18 4279017953
-274.72 7246.0298 14198.1 4279017953
-269.51999 7255.8101 14200.06 4279017953
-263.95001 7256.0601 14201.83 4279017953
-259.66 7252.7598 14201.8 4279017953
-254.02 7250.9302 14202.84 4279017953
-237.2 7247.3599 14198.1 4279017953
-226.92999 7252.4902 14200.81 4279017953
-221.35001 7251.98 14197.79 4279017953
-215.8 7252.8301 14197.44 4279017953
-210.89 7251.6099 14198.14 4279017953
-205.46001 7256.5898 14204.21 4279017953
-348.73001 7265.4399 14198.58 4279017953
-343.09 7264.29 14194.13 4279017953
-338.19 7263.8901 14201.31 4279017953
-333.98001 7263.3999 14201.66 4279017953
-328.13 7257.4902 14197.96 4279017953
-317.63 7272.4302 14206.07 4279017953
-313.35001 7270.52 14203.66 4279017953
-308 7259.79 14202.41 4279017953
-302.17001 7270.3101 14202.32 4279017953
-296.20001 7260.96 14203.74 4279017953
-290.60001 7260.5 14200.72 4279017953
-286.54001 7263.4502 14204.47 4279017953
-281.5 7259.4502 14197.96 4279017953
-275.31 7261.79 14203.74 4279017953
-270.10001 7271.5698 14204.01 4279017953
-264.39999 7268.3198 14200.61 4279017953
-260.10001 7265.0601 14200.67 4279017953
-254.42999 7262.54 14200.37 4279017953
-248.86 7262.7402 14202.06 4279017953
-243.24001 7261.5601 14202.76 4279017953
-237.67 7261.75 14201.07 4279017953
-216.27 7268.5898 14203.08 4279017953
-211.31 7265.96 14199.33 4279017953
-205.83 7269.5801 14202.73 4279017953
-193.88 7265.8301 14204.82 4279017953
-189.14 7271.3398 14196.89 4279017953
-178.63 7269.5601 14199.62 4279017953
-348.69 7279.1299 14198.42 4279017953
-343.87 7280.7798 14201.18 4279017953
-338.89001 7278.9702 14205.6 4279017953
-334.60999 7277.1099 14203.28 4279017953
-328.84 7273.2402 14201.91 4279017953
-323.17001 7271.4502 14202.96 4279017953
-318.07001 7282.6299 14200.83 4279017953
-313.12 7281.4302 14199.75 4279017953
-308.5 7271.3999 14199.94 4279017953
-302.59 7280.5098 14197.09 4279017953
-296.76001 7274.6699 14205.37 4279017953
-291.12 7273.4902 14200.92 4279017953
-286.98999 7275.02 14201.91 4279017953
-282.06 7273.8398 14200.92 4279017953
-275.76001 7273.3999 14201.27 4279017953
-270.5 7282.46 14200.1 4279017953
-264.95001 7283.3999 14204.9 4279017953
-260.60999 7279.46 14203.63 4279017953
-254.16 7274.8701 14199.24 4279017953
-249.3 7275.7202 14202.26 4279017953
-242.92999 7273.1602 14198.51 4279017953
-238.07001 7274 14198.16 4279017953
-233.13 7272.1099 14197.53 4279017953
-227.03999 7278.5 14201.21 4279017953
-221.42 7277.2402 14196.77 4279017953
-215.96001 7281.6001 14203.28 4279017953
-200.5 7278.6001 14203.24 4279017953
-194.14999 7276.0298 14199.59 4279017953
-189.57001 7287.79 14202.16 4279017953
-184.62 7285.8198 14199.75 4279017953
-178.95 7282.5498 14199.82 4279017953
-173.37 7282.6899 14201.5 4279017953
-167.84 7285.6001 14203.56 4279017953
-162.17999 7282.2598 14200.17 4279017953
-158.02 7283.7202 14197.79 4279017953
-152.42 7283.1602 14199.82 4279017953
-146.17999 7285.3301 14197.09 4279017953
-360.57999 7279.23 14196.39 4279017953
-355.17001 7282.9702 14201.46 4279017953
-349.38 7293.5298 14201.36 4279017953
-344.57999 7295.8198 14205.36 4279017953
-339.42999 7290.54 14201.34 4279017953
-335.14001 7288.6802 14200.7 4279017953
-323.63 7281.6499 14197.72 4279017953
-313.82001 7297.8901 14205.01 4279017953
-309.07999 7285.0698 14201.46 4279017953
-303.29999 7297.6499 14205.36 4279017953
-297.26001 7286.9302 14204.13 4279017953
-291.60999 7285.79 14199.78 4279017953
-287.42001 7285.8999 14198 4279017953
-281.92001 7288.2202 14203.78 4279017953
-276.22 7285.7002 14200.13 4279017953
-271.01001 7296.1802 14201.71 4279017953
-265.39001 7295.71 14203.75 4279017953
-261.07999 7292.3999 14202.04 4279017953
-254.64 7288.5298 14199.08 4279017953
-243.37 7286.1401 14198.71 4279017953
-238.53999 7288.3999 14201.11 4279017953
-221.88 7292.3198 14199.37 4279017953
-216.28 7292.4902 14199.37 4279017953
-212.08 7292.6299 14201.05 4279017953
-206.57001 7295.5601 14203.11 4279017953
-200.88 7292.27 14203.08 4279017953
-194.5 7289.02 14199.78 4279017953
-189.19 7300.1201 14201.01 4279017953
-184.92 7297.4399 14197.27 4279017953
-179.27 7295.54 14200 4279017953
-173.69 7296.3599 14201.34 4279017953
-168.06 7295.1201 14196.98 4279017953
-162.42 7293.1499 14196.26 4279017953
-158.36 7299.4902 14201.71 4279017953
-151.96001 7294.79 14197.33 4279017953
-146.44 7298.3198 14197.27 4279017953
-141.55 7299.1001 14200.29 4279017953
-136.64 7298.5098 14198.95 4279017953
-132.46001 7299.3301 14202.06 4279017953
-126.83 7298 14197.62 4279017953
-120.53 7297.4902 14203.11 4279017953
-371.01001 7305.48 14201.53 4279017953
-365.48999 7293.3701 14199.24 4279017953
-355.84 7296.6401 14202.97 4279017953
-349.95999 7305.7798 14200.11 4279017953
-345.16 7308.1201 14204.2 4279017953
-340 7302.8398 14200.18 4279017953
-335.73999 7301.6802 14200.87 4279017953
-329.95001 7297.8398 14199.61 4279017953
-324.29999 7296.7402 14201.99 4279017953
-318.64001 7295.5698 14199.24 4279017953
-314.35001 7310.1899 14203.84 4279017953
-309.66 7298.7402 14202.97 4279017953
-303.07999 7309.29 14201.18 4279017953
-297.79001 7299.9199 14202.63 4279017953
-292.16 7299.46 14201.29 4279017953
-288.04001 7301.6699 14201.92 4279017953
-282.53 7304 14207.7 4279017953
-276.79001 7300.75 14204.31 4279017953
-270.76999 7308.46 14200.46 4279017953
-265.84 7307.96 14200.81 4279017953
-261.48999 7304.0298 14199.54 4279017953
-255.09 7301.52 14199.26 4279017953
-250.22 7302.3901 14202.27 4279017953
-243.78 7298.4502 14197.55 4279017953
-238.95 7300.71 14199.96 4279017953
-233.96001 7298.0898 14197.9 4279017953
-227.85001 7304.48 14201.57 4279017953
-222.25 7304.6401 14198.2 4279017953
-216.71001 7306.8501 14200.53 4279017953
-212.44 7304.9399 14199.89 4279017953
-206.88 7306.4502 14199.19 4279017953
-201.17999 7303.21 14199.26 4279017953
-194.87 7302.7002 14201.29 4279017953
-189.53 7313.1201 14201.18 4279017953
-185.28 7311.8101 14200.11 4279017953
-179.59 7308.54 14198.49 4279017953
-173.98 7308.6802 14200.18 4279017953
-168.42999 7310.9102 14202.58 4279017953
-162.82001 7311.04 14204.27 4279017953
-158.58 7309.7002 14196.46 4279017953
-152.25 7308.4702 14198.84 4279017953
-146.7 7311.3101 14197.44 4279017953
-141.75999 7310.04 14196.46 4279017953
-132.66 7310.2202 14198.14 4279017953
-126.4 7313.1201 14201.88 4279017953
-120.72 7309.0698 14200.53 4279017953
-115.78 7307.1099 14199.89 4279017953
-110.88 7307.25 14205.03 4279017953
-105.92 7303.8501 14199.96 4279017953
-371.60001 7317.0498 14198.93 4279017953
-366.13 7320.1099 14200.98 4279017953
-356.44 7308.9399 14201.81 4279017953
-350.51999 7317.3999 14197.6 4279017953
-345.70999 7319.7402 14201.69 4279017953
-340.76999 7319.3501 14207.18 4279017953
-336.34 7314.6699 14201.03 4279017953
-330.48001 7309.4102 14197.02 4279017953
-324.72 7322.0601 14200.98 4279017953
-319.76999 7321.5498 14199.56 4279017953
-314.82001 7321.0801 14199.91 4279017953
-310.09 7308.9399 14197.72 4279017953
-303.62 7322.29 14201.33 4279017953
-298.32001 7312.9102 14202.79 4279017953
-292.64999 7311.77 14200.12 4279017953
-288.56 7314.6699 14202.09 4279017953
-282.87 7312.8301 14199.77 4279017953
-276.5 7311.6602 14198.7 4279017953
-271.25 7321.46 14200.62 4279017953
-266.26001 7319.5898 14198.3 4279017953
-261.98001 7317.71 14201.03 4279017953
-255.57001 7315.21 14200.75 4279017953
-249.86 7312.6099 14197.02 4279017953
-244.28 7313.5498 14201.81 4279017953
-238.64999 7312.9902 14198.7 4279017953
-234.78999 7324.0801 14198.23 4279017953
-228.22 7316.0498 14197.3 4279017953
-222.67 7318.3301 14199.7 4279017953
-217.12 7320.5498 14202.01 4279017953
-212.8 7317.25 14198.72 4279017953
-207.23 7318.77 14198.01 4279017953
-201.48 7314.1001 14195.33 4279017953
-195.17 7314.2798 14198.7 4279017953
-189.87 7326.1201 14201.33 4279017953
-185.58 7323.4302 14195.91 4279017953
-179.98 7324.3301 14204.07 4279017953
-168.73 7323.9102 14202.74 4279017953
-163.05 7321.25 14199 4279017953
-158.94 7326.1802 14203.37 4279017953
-152.53 7322.1602 14198.65 4279017953
-146.99001 7325.6899 14200.26 4279017953
-141.34 7324.4302 14199.28 4279017953
-137.17 7326.6099 14201.69 4279017953
-132.19 7323.23 14198.3 4279017953
-126.66 7328.1802 14204.35 4279017953
-120.96 7323.4399 14201.67 4279017953
-115.31 7321.5 14202.72 4279017953
-111.08 7320.25 14205.19 4279017953
-106.1 7316.1201 14198.7 4279017953
-100.48 7316.2002 14198.7 4279017953
-94.860001 7314.8999 14197.72 4279017953
-90 7319.1201 14200.75 4279017953
-85.769997 7317.7998 14199.77 4279017953
-80.18 7319.23 14199.07 4279017953
-388.42001 7329.2598 14202.54 4279017953
-383.42999 7328.1499 14201.56 4279017953
-377.25 7331.21 14201.83 4279017953
-371.59 7330.8101 14200.5 4279017953
-366.81 7333.79 14202.46 4279017953
-362.51999 7332.6299 14199.79 4279017953
-357.07001 7321.9302 14201.96 4279017953
-351.17999 7331.0801 14199.08 4279017953
-346.32001 7332.73 14200.15 4279017953
-341.28 7330.2598 14203.23 4279017953
-336.23001 7327.7002 14201.18 4279017953
-330.51999 7325.96 14204.01 4279017953
-320.34 7334.5898 14199.79 4279017953
-310.73001 7324.04 14200.28 4279017953
-304.22 7336.6602 14204.14 4279017953
-298.12 7325.25 14201.61 4279017953
-293.26001 7326.8198 14202.59 4279017953
-288.34 7327.0098 14200.91 4279017953
-283.42001 7327.2002 14202.59 4279017953
-277.04999 7326.0801 14201.61 4279017953
-271.84 7337.25 14204.5 4279017953
-266.76001 7333.27 14199.78 4279017953
-256.01999 7328.21 14200.91 4279017953
-250.39999 7328.4102 14202.59 4279017953
-244.67 7325.1201 14199.21 4279017953
-239.09 7326.7202 14200.28 4279017953
-228.69 7331.1602 14201.54 4279017953
-223.06 7331.3301 14199.85 4279017953
-217.48 7332.8701 14200.83 4279017953
-213.28 7333.73 14203.94 4279017953
-207.59 7331.7202 14196.39 4279017953
-201.89 7329.21 14199.57 4279017953
-195.52 7327.2798 14197.17 4279017953
-190.17 7337.7002 14198.73 4279017953
-185.94 7337.8101 14198.73 4279017953
-179.52 7334.5601 14198.8 4279017953
-174.60001 7334.6899 14200.48 4279017953
-168.34 7337.6099 14202.54 4279017953
-163.39999 7337.0698 14204.57 4279017953
-159.19 7337.8101 14200.85 4279017953
-152.83 7336.5801 14201.56 4279017953
-147.25999 7339.4302 14201.83 4279017953
-137.36 7336.8198 14196.41 4279017953
-132.39999 7334.8101 14195.7 4279017953
-126.82 7337.7002 14197.75 4279017953
-121.15 7335.0801 14199.15 4279017953
-115.47 7331.71 14197.45 4279017953
-111.26 7332.5698 14204.01 4279017953
-106.31 7330.54 14199.93 4279017953
-100.67 7329.9302 14200.28 4279017953
-85.910004 7329.3799 14197.17 4279017953
-74 7332.9902 14202.24 4279017953
-68.360001 7331.6802 14201.26 4279017953
-394.07999 7342.6699 14202.32 4279017953
-389.07999 7341.5801 14201.33 4279017953
-384.14999 7341.8501 14203.02 4279017953
-377.76999 7341.3999 14196.55 4279017953
-372.35001 7345.8701 14204.63 4279017953
-357.67001 7334.2402 14200.77 4279017953
-351.92999 7346.8701 14202.95 4279017953
-346.23001 7345.7598 14200.28 4279017953
-341.20999 7343.98 14204.7 4279017953
-336.70001 7337.8999 14195.91 4279017953
-331.10001 7338.9102 14202.38 4279017953
-325.32001 7335.7402 14200.77 4279017953
-321 7349.6602 14203.92 4279017953
-315.97 7347.8101 14201.61 4279017953
-310.67001 7339.1802 14204.51 4279017953
-304.70001 7348.29 14201.61 4279017953
-298.62 7337.5601 14200.42 4279017953
-293.10001 7340.5801 14204.16 4279017953
-288.98999 7343.5 14207.8 4279017953
-283.87 7338.8301 14200.07 4279017953
-277.54001 7339.0801 14201.75 4279017953
-272.23999 7348.1899 14200.63 4279017953
-266.53 7346.3198 14199.91 4279017953
-262.81 7340.9199 14195.91 4279017953
-256.53 7342.6299 14203.8 4279017953
-245.10001 7338.1201 14197.67 4279017953
-239.59 7341.79 14202.73 4279017953
-235.32001 7340.5601 14203.44 4279017953
-229.09 7344.1699 14201.68 4279017953
-223.39 7342.2202 14195.91 4279017953
-217.83 7344.5 14198.31 4279017953
-207.36 7348.2798 14203.37 4279017953
-202.23 7341.52 14198.39 4279017953
-195.92 7342.3901 14201.4 4279017953
-190.49001 7350.02 14197.53 4279017953
-186.25 7350.1299 14197.53 4279017953
-179.84 7347.5801 14198.93 4279017953
-174.88 7346.3198 14197.95 4279017953
-168.59 7348.5298 14198.58 4279017953
-159.42999 7348.71 14196.9 4279017953
-153.02 7345.3799 14193.52 4279017953
-147.49001 7351.02 14199.21 4279017953
-141.86 7351.1299 14199.21 4279017953
-136.91 7350.5298 14197.88 4279017953
-132.64999 7348.5698 14197.25 4279017953
-127.02 7349.3301 14195.22 4279017953
-120.66 7348.1001 14199.29 4279017953
-115.67 7344.71 14195.91 4279017953
-111.43 7343.4702 14200.07 4279017953
-106.47 7342.1201 14197.32 4279017953
-100.85 7342.9399 14198.74 4279017953
-95.209999 7342.3398 14200.77 4279017953
-89.599998 7344.4502 14199.72 4279017953
-80.449997 7344.5498 14198.03 4279017953
-68.470001 7343.3101 14198.74 4279017953
-399.70999 7355.3398 14198.99 4279017953
-394.89001 7357.79 14206.53 4279017953
-384.94 7356.96 14207.23 4279017953
-378.48001 7355.0898 14198.01 4279017953
-372.98001 7358.1899 14203.42 4279017953
-367.39001 7345.3599 14198.16 4279017953
-363.23001 7346.9902 14200.91 4279017953
-352.39001 7356.3799 14196.32 4279017953
-346.84 7358.7598 14200.41 4279017953
-341.70999 7354.8701 14200.75 4279017953
-337.45001 7354.3799 14201.1 4279017953
-331.72 7352.6499 14203.93 4279017953
-325.95999 7350.1201 14203.57 4279017953
-321.41 7359.1699 14197.3 4279017953
-316.5 7360.0698 14198.63 4279017953
-311.13 7350.0698 14200.55 4279017953
-305.17999 7359.8701 14198.99 4279017953
-299.26001 7353.3701 14205.97 4279017953
-293.48001 7350.0498 14197.45 4279017953
-289.31 7351.6299 14198.52 4279017953
-284.39999 7352.52 14201.53 4279017953
-272.72 7361.2002 14200.76 4279017953
-267.03 7360.0601 14201.46 4279017953
-262.72 7358.1699 14202.52 4279017953
-256.98001 7355.5898 14202.16 4279017953
-251.28999 7354.4199 14202.87 4279017953
-245.61 7353.2402 14201.89 4279017953
-239.99001 7354.1099 14201.53 4279017953
-234.99001 7352.21 14200.91 4279017953
-229.45 7355.7998 14199.14 4279017953
-223.81 7355.96 14197.46 4279017953
-218.23 7358.1899 14199.77 4279017953
-213.28999 7358.3501 14201.45 4279017953
-207.67 7359.1802 14199.41 4279017953
-202.67 7357.2798 14202.16 4279017953
-195.49001 7352.6201 14196.12 4279017953
-190.91 7366.52 14202.72 4279017953
-186.58 7363.1401 14197.65 4279017953
-180.2 7361.96 14200.04 4279017953
-175.24001 7361.4502 14202.17 4279017953
-163.92999 7360.98 14200.75 4279017953
-159.02 7362.4199 14198.36 4279017953
-153.39999 7364 14204.48 4279017953
-147.77 7364.71 14198.99 4279017953
-142.14999 7366.2598 14203.42 4279017953
-137.13 7362.1602 14195.34 4279017953
-132.88 7361.5801 14197.38 4279017953
-127.28 7364.4102 14199.34 4279017953
-120.87 7361.1201 14199.41 4279017953
-115.92 7360.5298 14201.45 4279017953
-111.6 7355.0601 14197.45 4279017953
-106.67 7355.8701 14198.87 4279017953
-101 7353.8301 14194.79 4279017953
-95.349998 7353.23 14196.82 4279017953
-89.75 7356.0298 14195.41 4279017953
-85.519997 7356.1401 14198.87 4279017953
-80.580002 7356.1299 14193.73 4279017953
-74.239998 7356.9502 14198.52 4279017953
-68.599998 7357 14198.52 4279017953
-373.67001 7371.8701 14203.18 4279017953
-368.07999 7359.1001 14199.7 4279017953
-363.98001 7362.1099 14205.11 4279017953
-358.97 7360.9199 14200.68 4279017953
-353.17999 7372.8799 14203.18 4279017953
-347.51999 7373.1499 14203.18 4279017953
-342.29001 7367.1699 14197.85 4279017953
-338.04999 7367.3901 14201.22 4279017953
-332.31 7365.6602 14204.05 4279017953
-326.54001 7363.1299 14203.69 4279017953
-321.42999 7375.7002 14202.47 4279017953
-317.09 7373.8198 14200.16 4279017953
-311.76999 7365.1899 14204.76 4279017953
-305.89999 7377.1099 14205.58 4279017953
-299.67999 7363.5601 14198.99 4279017953
-294.06 7364.48 14200.32 4279017953
-289.79001 7363.8999 14197.22 4279017953
-284.85001 7364.1499 14198.99 4279017953
-278.47 7363.71 14199.35 4279017953
-273.23001 7374.8999 14202.2 4279017953
-263.10999 7369.0601 14198.55 4279017953
-257.39001 7367.2202 14199.62 4279017953
-251.67 7365.3599 14198.99 4279017953
-245.97 7364.1299 14197.92 4279017953
-240.39 7366.4302 14200.32 4279017953
-235.38 7364.5298 14199.7 4279017953
-229.86 7368.8101 14199.26 4279017953
-223.61 7372.4902 14202.63 4279017953
-218.66 7372.5801 14200.86 4279017953
-213.89 7378.9199 14202.83 4279017953
-208 7370.8101 14196.87 4279017953
-202.97 7368.23 14198.28 4279017953
-195.91 7368.4399 14201.65 4279017953
-191.23 7378.8501 14201.49 4279017953
-186.28 7378.9902 14203.18 4279017953
-180.42999 7371.4702 14193.41 4279017953
-175.57001 7375.1499 14201.93 4279017953
-164.17999 7371.9199 14196.87 4279017953
-159.35001 7377.5498 14200.87 4279017953
-153.64999 7375.6401 14201.93 4279017953
-147.28999 7376.3599 14196.44 4279017953
-142.34 7376.4702 14198.12 4279017953
-137.42999 7378.6802 14202.2 4279017953
-133.13 7375.2798 14197.14 4279017953
-127.53 7378.8501 14200.52 4279017953
-121.08 7374.1401 14199.53 4279017953
-116.21 7378.98 14198.74 4279017953
-111.82 7369.5 14200.32 4279017953
-106.88 7370.27 14201.65 4279017953
-101.19 7367.54 14196.24 4279017953
-95.550003 7368.3599 14199.35 4279017953
-89.900002 7369.04 14195.53 4279017953
-85.669998 7369.1602 14198.99 4279017953
-80.029999 7370.5298 14196.51 4279017953
-359.57001 7373.2402 14199.46 4279017953
-348.07001 7384.79 14200.61 4279017953
-342.95999 7381.5601 14200.61 4279017953
-338.62 7379.71 14199.99 4279017953
-332.82999 7377.2402 14201.41 4279017953
-327.63 7387.77 14201.24 4279017953
-321.89999 7386.5898 14198.49 4279017953
-316.98001 7387.5498 14201.59 4279017953
-312.20001 7375.3901 14199.46 4279017953
-306.45999 7390.8198 14207 4279017953
-300.32001 7379.3799 14204.51 4279017953
-294.54999 7376.7998 14199.1 4279017953
-290.32999 7377.5898 14196.97 4279017953
-285.35999 7377.1602 14199.1 4279017953
-279.01999 7378.1001 14200.43 4279017953
-273.70999 7387.9399 14202.3 4279017953
-268 7386.77 14201.32 4279017953
-263.62 7383.46 14201.32 4279017953
-245.67 7376.48 14196.71 4279017953
-240.78999 7378.75 14199.1 4279017953
-236.17 7389.1401 14197.16 4279017953
-229.77 7388.6802 14199.19 4279017953
-223.96001 7384.0801 14199.99 4279017953
-218.38 7387.0498 14203.72 4279017953
-214.05 7384.3799 14201.68 4279017953
-208.39999 7385.21 14199.63 4279017953
-202.63 7381.2598 14198.39 4279017953
-196.22 7380.0698 14199.1 4279017953
-191.59 7392.5601 14202.92 4279017953
-186.55 7389.8999 14199.19 4279017953
-175.17 7388.1899 14202.03 4279017953
-169.50999 7388.2598 14200.26 4279017953
-163.82001 7387.71 14200.61 4279017953
-159.63 7390.5898 14200.97 4279017953
-153.89999 7387.9102 14198.93 4279017953
-147.57001 7390.0898 14197.86 4279017953
-142.58 7388.8101 14196.89 4279017953
-137.64999 7390.2798 14197.86 4279017953
-133.36 7388.2998 14197.24 4279017953
-127.71 7389.0698 14195.2 4279017953
-121.3 7387.1602 14199.63 4279017953
-112 7381.0801 14196 4279017953
-107.04 7381.1699 14197.68 4279017953
-101.39 7381.98 14199.1 4279017953
-95.010002 7380.6499 14198.04 4279017953
-90.099998 7384.8799 14201.05 4279017953
-85.790001 7380.0601 14195.02 4279017953
-333.45001 7390.9502 14202.83 4279017953
-317.51001 7399.8999 14200.35 4279017953
-312.81 7389.79 14202.21 4279017953
-306.92001 7401.73 14203.01 4279017953
-295.12 7391.2002 14201.86 4279017953
-285.14999 7390.1499 14197.42 4279017953
-279.45001 7389.6802 14197.78 4279017953
-274.17001 7400.2598 14201.06 4279017953
-268.42001 7398.3599 14198.66 4279017953
-264.04001 7395.0898 14198.75 4279017953
-257.64001 7394.6602 14202.48 4279017953
-252.58 7392.0698 14198.84 4279017953
-246.13 7390.1899 14198.13 4279017953
-241.19 7391.0298 14197.78 4279017953
-236.67 7404.98 14202.66 4279017953
-229.96001 7394.8599 14197.78 4279017953
-224.37 7397.79 14201.41 4279017953
-218.72 7398.6401 14201.06 4279017953
-214.47 7398.8301 14204.52 4279017953
-208.77 7398.2402 14199.73 4279017953
-203 7394.9702 14199.82 4279017953
-196.55 7392.3501 14197.78 4279017953
-191.14 7402.7998 14197.6 4279017953
-186.88 7402.9102 14197.6 4279017953
-181.12 7399.6299 14197.69 4279017953
-175.42999 7399.0898 14198.04 4279017953
-169.82001 7401.9702 14199.99 4279017953
-164.11 7400.7402 14200.7 4279017953
-159.89 7402.8701 14199.64 4279017953
-153.46001 7400.9502 14199.02 4279017953
-147.81 7402.4199 14196.62 4279017953
-142.83 7401.8301 14196.98 4279017953
-137.91 7404 14199.28 4279017953
-133.64 7403.4502 14201.41 4279017953
-127.97 7404.1802 14199.28 4279017953
-121.51 7400.1699 14198.04 4279017953
-116.49 7396.77 14196.36 4279017953
-111.51 7395.5498 14198.84 4279017953
-106.54 7394.9399 14199.2 4279017953
-101.55 7393.5801 14196.45 4279017953
-95.18 7394.4102 14199.55 4279017953
-90.239998 7396.52 14198.49 4279017953
-313.35999 7402.7998 14200.62 4279017953
-301.32001 7403.9902 14201.95 4279017953
-291.41 7405.0601 14199.9 4279017953
-285.64999 7403.1699 14197.51 4279017953
-280 7404.1401 14200.62 4279017953
-268.89001 7411.3799 14198.74 4279017953
-264.39999 7405.29 14193.43 4279017953
-258.31 7413.8701 14201.13 4279017953
-253.07001 7406.48 14201.59 4279017953
-246.59 7403.9502 14199.64 4279017953
-241.60001 7403.3599 14196.54 4279017953
-230.37 7407.8799 14197.86 4279017953
-224.77 7410.8198 14201.5 4279017953
-219.17 7413.7998 14205.22 4279017953
-214.78 7409.7202 14198.84 4279017953
-209.16 7411.9399 14199.46 4279017953
-203.55 7414.8398 14199.72 4279017953
-196.91 7406.0601 14197.51 4279017953
-191.46001 7415.1299 14196.35 4279017953
-187.21001 7415.9399 14197.67 4279017953
-181.47 7414.0498 14200.43 4279017953
-175.75 7412.8101 14199.46 4279017953
-170.09 7413.6099 14197.41 4279017953
-160.19 7416.6401 14201.13 4279017953
-153.72 7413.29 14197.77 4279017953
-148.09 7416.1401 14198.03 4279017953
-143.10001 7415.54 14196.7 4279017953
-133.83 7414.3501 14197.41 4279017953
-127.47 7416.52 14198.03 4279017953
-121.69 7411.0698 14194.05 4279017953
-116.71 7410.54 14197.86 4279017953
-111.71 7408.5698 14198.93 4279017953
-106.73 7408.6499 14198.93 4279017953
-101.03 7407.2998 14197.87 4279017953
-95.339996 7406.7002 14198.22 4279017953
-301.82001 7416.3101 14199 4279017953
-296.19 7417.9302 14201.66 4279017953
-286.26001 7419.0601 14203.08 4279017953
-274.54999 7429.8501 14206.25 4279017953
-269.48999 7427.9702 14205.63 4279017953
-264.97 7421.1401 14198.91 4279017953
-258.48999 7419.3198 14199.98 4279017953
-252.78 7418.8398 14200.33 4279017953
-247.12 7419.7798 14203.44 4279017953
-241.49001 7422.04 14205.74 4279017953
-237.09 7417.9902 14201.05 4279017953
-230.77 7420.9102 14197.94 4279017953
-225.10001 7421.7598 14197.58 4279017953
-219.45 7423.3101 14198.55 4279017953
-215.17999 7423.4502 14200.24 4279017953
-209.49001 7423.5801 14196.87 4279017953
-203.72 7421.02 14198.29 4279017953
-197.22 7417.7002 14194.93 4279017953
-191.85001 7430.2798 14198.8 4279017953
-187.57001 7430.4102 14200.49 4279017953
-181.78999 7427.0698 14198.81 4279017953
-176.03999 7425.1499 14198.2 4279017953
-170.37 7425.9502 14196.15 4279017953
-164.69 7426.8398 14200.94 4279017953
-160.46001 7428.98 14199.87 4279017953
-153.95 7424.1899 14193.76 4279017953
-148.35001 7429.1602 14196.41 4279017953
-142.62 7427.8901 14195.44 4279017953
-138.38 7429.3701 14198.1 4279017953
-133.37 7428.0898 14198.81 4279017953
-127.69 7429.5601 14198.1 4279017953
-121.93 7425.54 14196.87 4279017953
-116.2 7423.52 14196.16 4279017953
-111.88 7420.1699 14196.26 4279017953
-106.92 7421.6802 14199 4279017953
-101.22 7421.02 14197.59 4279017953
-258.97 7433.0298 14199.68 4279017953
-247.5 7431.3799 14200.75 4279017953
-241.82001 7432.25 14200.4 4279017953
-237.46001 7429.6499 14198.45 4279017953
-231.22 7435.3301 14200.66 4279017953
-225.53999 7436.1802 14200.3 4279017953
-219.81 7435.6299 14195.6 4279017953
-215.56 7436.48 14200.3 4279017953
-209.84 7435.9199 14195.6 4279017953
-204.06 7433.3501 14197.03 4279017953
-197.59 7431.4199 14196.32 4279017953
-192.14999 7441.8799 14196.11 4279017953
-187.88 7442.75 14199.22 4279017953
-181.42 7440.8599 14200.29 4279017953
-176.37 7438.8599 14197.9 4279017953
-169.99001 7440.3901 14198.87 4279017953
-164.92999 7437.75 14196.93 4279017953
-160.78 7444.0898 14202.23 4279017953
-154.27 7440.0498 14199.23 4279017953
-148.64 7443.6299 14199.22 4279017953
-142.89 7441.6299 14196.83 4279017953
-138.57001 7439.5698 14192.75 4279017953
-133.60001 7441.1201 14197.18 4279017953
-127.92 7442.5801 14196.47 4279017953
-122.15 7439.27 14198.26 4279017953
-116.43 7438 14198.97 4279017953
-112.2 7441.48 14198.87 4279017953
-220.24001 7450.0601 14198.3 4279017953
-215.2 7448.8398 14199.02 4279017953
-204.41 7446.3901 14197.08 4279017953
-198.14999 7452.7402 14198.92 4279017953
-192.53999 7457.0498 14200.23 4279017953
-188.17999 7454.3398 14196.51 4279017953
-176.66 7451.2002 14196.62 4279017953
-170.3 7454.1699 14200.33 4279017953
-165.28999 7453.6001 14200.69 4279017953
-161.02 7455 14198.2 4279017953
-154.5 7451 14195.29 4279017953
-148.87 7455.23 14196.51 4279017953
-143.17 7456.1099 14199.62 4279017953
-138.11 7453.2998 14192.44 4279017953
-133.85001 7454.8501 14198.56 4279017953
-128.14999 7456.3198 14197.84 4279017953
-121.64 7451.6201 14196.98 4279017953
-116.63 7451.04 14199.02 4279017953
-112.29 7447.6602 14197.43 4279017953
-197.62 7459.6699 14200.48 4279017953
-188.58 7470.21 14200.26 4279017953
-182.07001 7467.6401 14201.69 4279017953
-177 7465.6401 14199.31 4279017953
-165.53 7464.5098 14196.65 4279017953
-160.59 7468.0601 14198.23 4279017953
-154.84 7467.5601 14200.37 4279017953
-149.14 7468.98 14197.88 4279017953
-143.42 7469.1499 14199.65 4279017953
-138.39 7468.48 14196.55 4279017953
-134.12 7470.04 14202.66 4279017953
-128.39999 7470.7998 14200.62 4279017953
-121.84 7463.9702 14195.68 4279017953
-116.82 7463.3799 14197.73 4279017953
-155.07001 7478.46 14196.32 4279017953
-148.67999 7481.3398 14196.57 4279017953
-138.67999 7484.3701 14201.96 4279017953
-134.31 7480.25 14197.29 4279017953
