# .PCD v0.7 - Point Cloud Data file format
VERSION 0.7
FIELDS x y z rgb
SIZE 4 4 4 4
TYPE F F F U
COUNT 1 1 1 1
WIDTH 946
HEIGHT 1
VIEWPOINT 0 0 0 1 0 0 0
POINTS 946
DATA ascii
385.07001 5747.6001 14202.44 4289344019
373.64001 5759.1499 14199.68 4289344019
377.54999 5759.46 14201.07 4289344019
381.41 5759.21 14201.07 4289344019
385.98999 5761.2002 14206.72 4289344019
389.98999 5754.8501 14197.64 4289344019
407.35001 5757.3101 14202.74 4289344019
416.07001 5755.1201 14206.72 4289344019
369.47 5771.8398 14202.84 4289344019
374.29999 5769.3398 14195.53 4289344019
378.88 5771.3398 14201.18 4289344019
382.28 5772.25 14203.96 4289344019
386.59 5770.2598 14199.79 4289344019
390.92001 5768.4902 14202.01 4289344019
395.87 5767.9199 14205.34 4289344019
399.57001 5765.0498 14204.79 4289344019
412.35001 5765.0601 14201.18 4289344019
416.72 5764.1499 14199.7 4289344019
358.10999 5785.8901 14202.39 4289344019
365.84 5784.7202 14202.67 4289344019
370.78 5783.73 14202.94 4289344019
375.19 5782.9502 14199.79 4289344019
379.73999 5784.3999 14204.05 4289344019
383.10999 5784.8599 14203.77 4289344019
387.57999 5785.0498 14206.92 4289344019
391.67999 5779.8101 14200.63 4289344019
396.73001 5780.4102 14206.83 4289344019
400.35999 5776.3999 14203.5 4289344019
404.79001 5784.0601 14203.5 4289344019
409.04001 5781.1499 14202.94 4289344019
413.23999 5777.6201 14200.91 4289344019
417.79001 5778.9199 14206.83 4289344019
421.45001 5775.6602 14201.46 4289344019
424.82001 5776.02 14202.94 4289344019
429.25 5775.6899 14202.94 4289344019
434.22 5775.0898 14206.28 4289344019
358.81 5797.21 14200.99 4289344019
366.48001 5794.9102 14198.49 4289344019
371.44 5793.9199 14198.77 4289344019
376.10999 5797.1802 14205.53 4289344019
380.56 5796.8901 14205.53 4289344019
383.82999 5795.6099 14200.99 4289344019
388.91 5796.4502 14203.86 4289344019
392.66 5794.1499 14204.7 4289344019
397.51001 5791.77 14205.53 4289344019
401.23001 5788.9702 14203.22 4289344019
409.72 5790.7598 14197.38 4289344019
414.01999 5788.4102 14198.22 4289344019
418.57001 5789.71 14204.14 4289344019
426.16 5786.73 14200.17 4289344019
430.17999 5788.1802 14204.42 4289344019
434.94 5784.71 14200.72 4289344019
438.92999 5785.8901 14198.5 4289344019
442.07001 5783.2202 14194.52 4289344019
350.44 5806.3999 14200.8 4289344019
355.76999 5811.2402 14203.66 4289344019
360 5807.3701 14196.81 4289344019
362.70001 5796.8999 14202.75 4289344019
367.85999 5807.9399 14201.35 4289344019
372.31 5807.54 14203.01 4289344019
377.37 5807.8999 14202.73 4289344019
381.31 5808.3301 14202.46 4289344019
384.69 5808.71 14203.94 4289344019
389.59 5806.6401 14199.68 4289344019
393.94 5804.8599 14201.91 4289344019
398.20999 5801.9502 14201.36 4289344019
402.60999 5800.8501 14203.3 4289344019
405.70999 5797.23 14204.69 4289344019
410.67999 5804.3901 14201.63 4289344019
415.42001 5800.25 14198.21 4289344019
419.91 5800.4199 14201.36 4289344019
423.07001 5797.7598 14197.38 4289344019
427 5798.04 14198.77 4289344019
431.62 5800.02 14204.41 4289344019
435.92999 5797.8701 14201.91 4289344019
439.92001 5798.9399 14201.36 4289344019
451.25 5793.6001 14198.21 4289344019
456.60999 5797.7598 14199.69 4289344019
464.04001 5799.79 14200.24 4289344019
346.69 5818.3799 14204.2 4289344019
351.39001 5812.8701 14203.1 4289344019
356.32001 5820.25 14196.6 4289344019
360.85001 5821.04 14201.13 4289344019
363.54999 5810.5298 14206.99 4289344019
368.62 5819.8701 14201.41 4289344019
373.19 5821.3301 14205.67 4289344019
378.19 5820.5098 14202.52 4289344019
382.09 5820.2598 14202.52 4289344019
386.04001 5820.6099 14204 4289344019
390.47 5819.7002 14202.52 4289344019
394.70999 5816.23 14200.59 4289344019
398.95001 5812.71 14198.56 4289344019
403.31 5811.0498 14199.11 4289344019
412.22 5818.1299 14204.28 4289344019
416.39999 5813.9199 14202.53 4289344019
420.73001 5811.8501 14198.28 4289344019
423.98001 5810.25 14198.84 4289344019
427.95999 5811.1401 14201.71 4289344019
432.45999 5811.3799 14203.09 4289344019
436.78 5809.2002 14200.5 4289344019
441.51999 5812.5601 14205.68 4289344019
444.63 5809.2798 14200.22 4289344019
448.56 5809.4902 14203.37 4289344019
452.69 5804.9102 14196.89 4289344019
457.03 5803.2002 14197.45 4289344019
462.20999 5812.0098 14198.55 4289344019
469.13 5807.29 14201.98 4289344019
474.19 5807.5498 14201.71 4289344019
495.12 5803.0898 14191.25 4289344019
330.72 5832.9502 14198.61 4289344019
335.12 5831.4399 14197.5 4289344019
339.60001 5831.1802 14197.5 4289344019
347.35999 5829.75 14202.87 4289344019
352.12 5824.8799 14201.4 4289344019
361.59 5832.98 14201.19 4289344019
365.45999 5832.0601 14201.47 4289344019
369.29999 5830.6299 14198.61 4289344019
373.85001 5831.52 14201.47 4289344019
378.95999 5832.4502 14202.58 4289344019
383.35999 5831.02 14199.8 4289344019
386.87 5833.1099 14205.45 4289344019
391.14999 5829.8901 14198.33 4289344019
395.60001 5829.29 14203.42 4289344019
400.41 5825.77 14201.49 4289344019
404.38 5826.4702 14207.68 4289344019
407.84 5827.6602 14205.37 4289344019
413.01999 5829.4502 14202.86 4289344019
417.29999 5826.4102 14203.98 4289344019
421.64001 5824.3501 14199.73 4289344019
425.62 5825.1299 14204.26 4289344019
428.84 5823.0801 14201.76 4289344019
433.31 5822.75 14201.76 4289344019
442.29001 5822.7402 14201.49 4289344019
445.59 5821.8198 14201.76 4289344019
449.48001 5821.4102 14203.43 4289344019
453.72 5818.0698 14198.07 4289344019
458.06 5816.25 14200.29 4289344019
463.16 5823.9302 14198.61 4289344019
475.20999 5820.0498 14203.15 4289344019
479.35999 5815.79 14201.4 4289344019
491.45001 5819.3701 14202.87 4289344019
492 5825.9399 14203.4 4289344019
495.82999 5811.3999 14196.04 4289344019
326.17001 5841.8799 14198.39 4289344019
331.42999 5845.46 14200.04 4289344019
335.94 5845.7002 14203.19 4289344019
344.20001 5842.6001 14202.64 4289344019
347.97 5839.9399 14198.67 4289344019
352.91 5838 14204.32 4289344019
358.16 5841.0801 14202.92 4289344019
362.39999 5846.0601 14204.01 4289344019
366.35999 5846.3901 14205.4 4289344019
370.20001 5844.8901 14204.29 4289344019
374.5 5841.71 14197.27 4289344019
384.26001 5844.6699 14204.01 4289344019
387.51001 5842.6899 14199.76 4289344019
392.07001 5843.5698 14202.62 4289344019
396.38 5840.73 14200.32 4289344019
401.23001 5837.7798 14199.78 4289344019
405.13 5837.23 14204.87 4289344019
409.57001 5844.3101 14203.45 4289344019
413.73999 5839.6401 14198.65 4289344019
417.98001 5836.0298 14198.39 4289344019
422.59 5837.46 14202.64 4289344019
426.32999 5834.7402 14198.67 4289344019
429.67999 5834.5 14198.67 4289344019
434.20001 5834.7402 14200.06 4289344019
439.17999 5833.5801 14202 4289344019
443.14999 5834.0601 14200.06 4289344019
446.45999 5833.2402 14198.67 4289344019
450.87 5832.1201 14200.61 4289344019
454.73001 5831.1299 14200.89 4289344019
458.95999 5827.6099 14198.96 4289344019
464.25 5837.6001 14202.91 4289344019
471.60999 5831.0498 14202 4289344019
476.04001 5830.23 14198.95 4289344019
480.44 5828.8901 14204.32 4289344019
487.85001 5830.1001 14206.82 4289344019
492.85999 5836.1201 14199.2 4289344019
496.94 5824.4902 14198.96 4289344019
514.28003 5829.7002 14197.83 4289344019
518.56 5827.1699 14200.33 4289344019
523.07001 5827.27 14203.48 4289344019
532.01001 5832.6099 14200.96 4289344019
324.17001 5856.48 14200.64 4289344019
332.10999 5857.4102 14200.08 4289344019
336.63 5857.6499 14203.23 4289344019
341.13 5857.46 14201.46 4289344019
345.39001 5853.3501 14199.81 4289344019
348.72 5852.4702 14200.09 4289344019
353.67001 5850.5098 14205.75 4289344019
359.29001 5859.6099 14203.48 4289344019
363.14999 5858.1201 14202.38 4289344019
366.89001 5854.8599 14197.02 4289344019
371.10999 5859.27 14208.3 4289344019
375.98001 5855.9399 14202.94 4289344019
385 5856.04 14202.66 4289344019
388.42001 5856.4902 14202.38 4289344019
393.31 5853.8301 14196.74 4289344019
397.34 5854.9902 14206 4289344019
402.09 5850.2998 14201.2 4289344019
405.79999 5846.8501 14199.27 4289344019
414.54999 5851 14197.3 4289344019
419.04999 5850.96 14203.79 4289344019
423.37 5848.2202 14199.81 4289344019
427.32001 5848.3999 14202.87 4289344019
431.16 5846.9702 14200.09 4289344019
435.09 5846.6802 14200.09 4289344019
440.03 5844.9399 14200.66 4289344019
444.28 5849.0098 14205.45 4289344019
447.5 5846.8901 14202.87 4289344019
451.89001 5845.2998 14201.76 4289344019
455.79999 5844.8101 14205.19 4289344019
459.94 5840.1001 14200.39 4289344019
465.39001 5851.9199 14206.82 4289344019
472.72 5844.73 14206.29 4289344019
477.10999 5843.29 14201.76 4289344019
481.37 5840.21 14202.89 4289344019
488.70001 5840.2798 14202.61 4289344019
494.42999 5847.9902 14199.23 4289344019
497.91 5835.7998 14197.53 4289344019
503.5 5848.4102 14202.1 4289344019
511.22 5846.2598 14204.33 4289344019
515.44 5842.8701 14198.97 4289344019
520.17999 5839.04 14200.38 4289344019
527.59998 5833.77 14198.92 4289344019
532.98999 5843.3501 14198.13 4289344019
538.12 5843.8501 14204.33 4289344019
542.54999 5842.8599 14202.94 4289344019
546.19 5839.5 14197.59 4289344019
550.15002 5839.5898 14200.64 4289344019
554.75 5840.4199 14201.75 4289344019
315.76001 5867.6899 14199.56 4289344019
320.28 5867.73 14206.04 4289344019
324.89999 5869.5801 14203.44 4289344019
332.92001 5871.79 14204.07 4289344019
337.29001 5869.1001 14200.11 4289344019
341.89001 5870.5898 14204.36 4289344019
346.20001 5867.0098 14204 4289344019
349.45999 5864.98 14201.51 4289344019
354.14001 5858.3799 14195.9 4289344019
360.06 5872.1299 14204.9 4289344019
367.75 5868.5298 14201.21 4289344019
372.17001 5867.1001 14198.44 4289344019
376.70001 5867.27 14201.49 4289344019
385.76001 5867.48 14199.54 4289344019
389.32999 5870.1602 14206.56 4289344019
394.23001 5867.4902 14200.93 4289344019
397.95999 5864.04 14199 4289344019
402.91 5862.2402 14201.23 4289344019
407.31 5860.5698 14201.79 4289344019
410.41 5856.3599 14201.82 4289344019
420.22 5859.3701 14195.31 4289344019
424.14999 5858.98 14196.98 4289344019
428.07001 5858.5801 14198.65 4289344019
432.09 5859.48 14201.51 4289344019
436.54001 5858.5698 14200.13 4289344019
440.81 5855.23 14194.77 4289344019
444.97 5858.0098 14198.36 4289344019
448.94 5858.21 14201.51 4289344019
461.53 5853.1299 14203.2 4289344019
466.14999 5861.5298 14201.21 4289344019
473.69 5856.73 14204.57 4289344019
482.35001 5852.1299 14202.92 4289344019
490.20999 5851.5898 14201.25 4289344019
495.54001 5861.0601 14202.03 4289344019
499.07001 5849.4702 14201.82 4289344019
504.94 5858.5298 14197.87 4289344019
512.66998 5856.3799 14200.11 4289344019
517.04999 5854.7402 14199 4289344019
521.29999 5851.6401 14200.13 4289344019
525.67999 5849.9502 14198.93 4289344019
528.52002 5843.9302 14194.7 4289344019
534.75 5856.46 14199.26 4289344019
538.90002 5852.2598 14195.86 4289344019
543.54999 5853.6001 14200.11 4289344019
547.91998 5851.9302 14199 4289344019
551.22998 5851.0098 14197.52 4289344019
555.65997 5850.0098 14196.14 4289344019
560.79999 5850.5098 14202.33 4289344019
311.79999 5878.1201 14195.33 4289344019
316.41 5879.6001 14199.49 4289344019
325.66 5883.3999 14206.04 4289344019
333.44 5880.7998 14196.98 4289344019
338.64001 5882.7402 14204.28 4289344019
343.12 5881.8999 14202.9 4289344019
346.87 5878.3901 14202.63 4289344019
350.67999 5875.8198 14197 4289344019
355.57001 5872.5801 14201.47 4289344019
365.29999 5883.7002 14206.58 4289344019
373.01001 5880.1899 14201.23 4289344019
377.51001 5879.7998 14202.9 4289344019
386.62 5880.5698 14202.33 4289344019
390.51999 5879.7402 14200.94 4289344019
395.10999 5880.5801 14203.71 4289344019
399.32001 5875.8999 14198.93 4289344019
403.81 5875.3301 14204.02 4289344019
408.26001 5874.23 14205.97 4289344019
411.95999 5878.4502 14197.52 4289344019
416.88 5875.98 14200.13 4289344019
421.25 5873.6401 14200.97 4289344019
425.70999 5872.7002 14199.49 4289344019
428.98001 5871.0898 14200.05 4289344019
433.04999 5872.5601 14204.3 4289344019
437.38 5869.8999 14198.67 4289344019
441.92001 5870.0601 14201.81 4289344019
446.57001 5871.6602 14202.63 4289344019
449.94 5871.29 14204.3 4289344019
453.60001 5867.4102 14197.57 4289344019
458.13 5867.4502 14202.38 4289344019
462.48001 5865.1299 14201.47 4289344019
467.19 5874.6099 14204 4289344019
474.45999 5866.3301 14198.95 4289344019
479.67999 5867.7798 14201.53 4289344019
483.85999 5863.5098 14199.8 4289344019
491.17001 5863.0098 14198.13 4289344019
496.39999 5871.2402 14197.8 4289344019
500.60001 5860.7402 14200.36 4289344019
506.01999 5871.0298 14199.28 4289344019
509.95999 5870.7598 14197.52 4289344019
513.71997 5868.3799 14198.36 4289344019
518.04999 5866.0498 14197.54 4289344019
522.35999 5863.52 14200.05 4289344019
526.79999 5862.4399 14200.34 4289344019
531.51001 5870.6201 14201.76 4289344019
535.84003 5868.3799 14199.28 4289344019
544.76001 5866.6602 14202.9 4289344019
549.20001 5865.5601 14203.18 4289344019
561.78003 5860.6699 14198.1 4289344019
566.46002 5862.1499 14198.93 4289344019
570.28003 5860.6299 14196.16 4289344019
583.65997 5863.8901 14197.52 4289344019
588.42999 5860.5098 14202.07 4289344019
592.06 5857.1099 14196.72 4289344019
300.81 5895.23 14196.7 4289344019
308.17001 5895.0498 14204.85 4289344019
312.56 5892.3701 14200.88 4289344019
317.76999 5894.4399 14206.52 4289344019
322.03 5889.3501 14198.68 4289344019
326.26001 5894.1899 14203.18 4289344019
328.81 5878.9199 14199.49 4289344019
334.81 5895.0601 14202.62 4289344019
339.29001 5894.1201 14202.9 4289344019
343.81 5893.8599 14202.9 4289344019
347.51001 5889.1602 14199.78 4289344019
351.53 5890.1099 14202.65 4289344019
356.26001 5883.96 14200.1 4289344019
361.42001 5894.2798 14200.67 4289344019
365.97 5894.4702 14203.72 4289344019
369.85001 5892.9702 14202.62 4289344019
373.69 5890.9502 14198.37 4289344019
378.28 5891.8501 14201.24 4289344019
383.45001 5892.7798 14202.34 4289344019
387.89001 5891.29 14199.47 4289344019
391.42999 5893.4102 14205.11 4289344019
395.79999 5890.77 14199.47 4289344019
400.17999 5888.4399 14200.32 4289344019
405.07999 5885.48 14199.78 4289344019
409.04999 5885.6001 14204.6 4289344019
412.95999 5892.73 14203.16 4289344019
417.76999 5888.5698 14199.76 4289344019
422.17999 5886.73 14203.75 4289344019
426.60999 5885.21 14200.88 4289344019
430.38 5882.4199 14198.68 4289344019
433.92999 5884.5098 14204.31 4289344019
438.5 5884.8501 14204.03 4289344019
442.69 5880.25 14197.58 4289344019
447.35001 5881.8398 14198.4 4289344019
450.72 5881.4702 14200.07 4289344019
458.97 5878.21 14199.53 4289344019
463.37 5876.4902 14200.1 4289344019
468.62 5885.3599 14201.24 4289344019
471.76001 5882.0698 14195.89 4289344019
475.42999 5878.27 14198.96 4289344019
480.60001 5879.1099 14200.07 4289344019
484.79001 5874.8701 14198.43 4289344019
492.17001 5874.9399 14198.14 4289344019
497.56 5885.0298 14200.39 4289344019
501.63 5872.77 14198.71 4289344019
507.09 5883.5298 14200.67 4289344019
511 5882.6899 14197.52 4289344019
514.71997 5879.73 14196.99 4289344019
519.15997 5878.5601 14198.93 4289344019
523.37 5874.8799 14198.68 4289344019
527.77002 5873.2202 14197.58 4289344019
532.53003 5881.9702 14200.39 4289344019
536.92999 5880.27 14199.19 4289344019
541.87 5878.3799 14201.52 4289344019
546.27002 5876.7798 14198.66 4289344019
550.15002 5875.75 14198.93 4289344019
553.64001 5876.6099 14201.8 4289344019
558.32001 5878 14204.29 4289344019
563.09003 5874.3501 14202.36 4289344019
572.10999 5873.6499 14198.93 4289344019
575.41998 5872.5298 14200.88 4289344019
580.03998 5867.5 14199.53 4289344019
584.96002 5876.9902 14200.39 4289344019
589.45001 5870.6699 14197.83 4289344019
593.14001 5867.8398 14193.87 4289344019
596.85999 5865.2998 14196.38 4289344019
601.21997 5863.48 14196.95 4289344019
611.29999 5873 14199.19 4289344019
619.25 5872.79 14200.67 4289344019
308.73001 5905.8301 14201.99 4289344019
313.16 5903.7598 14199.5 4289344019
318.32001 5904.6401 14202.27 4289344019
329.60001 5893.21 14205.13 4289344019
335.42001 5905.8301 14199.76 4289344019
339.95001 5905.48 14201.42 4289344019
344.51999 5905.8799 14201.14 4289344019
348.42001 5904.71 14206.52 4289344019
352.17001 5900.8799 14199.78 4289344019
357.20001 5899.5098 14206.83 4289344019
362.82999 5908.0298 14203.15 4289344019
366.64001 5905.23 14200.86 4289344019
370.56 5904.3101 14201.14 4289344019
374.45001 5902.9102 14198.37 4289344019
379.09 5904.3799 14202.62 4289344019
384.19 5904.1201 14200.86 4289344019
388.67999 5903.25 14199.47 4289344019
392.14999 5904.21 14202.33 4289344019
396.67999 5903.9102 14202.33 4289344019
405.91 5897.5298 14198.12 4289344019
409.79999 5896.3701 14201.74 4289344019
414.23999 5902.8701 14198.9 4289344019
418.66 5901.0898 14201.14 4289344019
422.95999 5897.4902 14200.89 4289344019
427.39999 5896.0098 14198.12 4289344019
431.42999 5896.77 14202.55 4289344019
434.73001 5895.3701 14199.78 4289344019
439.29999 5895.6099 14201.17 4289344019
444.23999 5893.29 14200.35 4289344019
448.29999 5894.3501 14199.78 4289344019
451.59 5892.8398 14198.68 4289344019
456.14999 5892.96 14201.74 4289344019
459.95999 5890.8301 14199.25 4289344019
469.60999 5897.8701 14202.62 4289344019
472.91 5896.4102 14199.76 4289344019
485.82999 5887.3799 14199.82 4289344019
493.12 5886.2598 14196.67 4289344019
498.47 5895.7798 14197.52 4289344019
502.64999 5884.6699 14198.62 4289344019
512.03998 5894.6201 14197.52 4289344019
515.96997 5894 14202.62 4289344019
520.37 5892.2598 14203.18 4289344019
524.48999 5887.3799 14200.07 4289344019
529.04999 5887.4399 14203.12 4289344019
533.51001 5892.71 14197.52 4289344019
537.96002 5891.6201 14197.8 4289344019
542.81 5888.6099 14195.51 4289344019
547.38 5888.7202 14198.65 4289344019
551.21997 5887.1602 14195.79 4289344019
554.70001 5887.9302 14200.32 4289344019
559.79999 5887.5498 14198.65 4289344019
564.16998 5885.6602 14200.89 4289344019
568.87 5887.1499 14201.7 4289344019
573.28003 5885.5698 14198.93 4289344019
576.65002 5885.0298 14202.27 4289344019
581.15997 5878.7998 14198.06 4289344019
590.77002 5883.8398 14198.93 4289344019
594.64001 5882.6602 14200.89 4289344019
598.02002 5876.6401 14195 4289344019
603.06 5875.9102 14198.34 4289344019
607.06 5876.0098 14201.49 4289344019
612.53998 5884.9199 14199.19 4289344019
614.76001 5873.4302 14197.24 4289344019
620.38 5883.52 14197.8 4289344019
623.83002 5873.0601 14198.62 4289344019
633.35999 5882.2402 14196.14 4289344019
636.53003 5879.9102 14195.23 4289344019
297.23001 5914.3198 14203.68 4289344019
309.89999 5917.1899 14200.59 4289344019
318.94 5916.02 14200.88 4289344019
330.14001 5902.8301 14199.5 4289344019
336.23999 5920.1499 14205.37 4289344019
340.70001 5918.6299 14204.27 4289344019
345.25 5918.4399 14202.51 4289344019
349.70001 5916.6401 14206.5 4289344019
352.98999 5914.5601 14203.93 4289344019
357.73999 5908.5098 14199.72 4289344019
363.53 5919.3799 14201.66 4289344019
367.39001 5917.2998 14199.18 4289344019
371.35001 5916.9399 14200.84 4289344019
375.32001 5916.6899 14200.84 4289344019
380.45999 5916.8901 14203.98 4289344019
385 5916.6499 14202.23 4289344019
389.5 5915.7798 14200.84 4289344019
393.01999 5917.3198 14205.09 4289344019
397.56 5917.02 14205.09 4289344019
401.97 5914.79 14204.27 4289344019
406.85001 5911.21 14202.26 4289344019
410.54999 5907.1299 14198.87 4289344019
419.63 5914.8198 14205.37 4289344019
423.85999 5910.1201 14200.59 4289344019
428.47 5910.8799 14205.12 4289344019
432.34 5909.29 14203.93 4289344019
436.22 5907.8501 14201.16 4289344019
445.09 5904.6201 14198.87 4289344019
449.12 5905.1099 14196.92 4289344019
452.60001 5906.04 14199.78 4289344019
456.92999 5903.1401 14197.48 4289344019
460.79999 5901.5801 14196.38 4289344019
465.44 5902.6699 14205.63 4289344019
470.66 5911.0698 14203.7 4289344019
477.97 5902.6699 14200.34 4289344019
482.89001 5907.0898 14209.94 4289344019
494.26999 5899.96 14200.91 4289344019
500.29001 5910.5898 14204.52 4289344019
503.62 5896.0298 14197.24 4289344019
509.26001 5908.6201 14201.66 4289344019
513.07001 5906.5498 14197.51 4289344019
516.85999 5904.1802 14198.35 4289344019
521.42999 5904.2598 14201.41 4289344019
525.60999 5899.9902 14199.78 4289344019
530.01001 5898.23 14200.34 4289344019
539.15997 5904.7002 14200.56 4289344019
544.08002 5902.3198 14199.74 4289344019
548.54999 5901.3198 14198.35 4289344019
552.39001 5899.6602 14197.16 4289344019
556.40002 5899.7998 14200.31 4289344019
560.97998 5900.0498 14200.02 4289344019
565.32001 5897.6899 14199.21 4289344019
569.97998 5898.6099 14198.64 4289344019
574.59998 5899.21 14203.08 4289344019
577.58002 5894.6099 14196.63 4289344019
582.28003 5890.1499 14196.67 4289344019
586.15002 5888.9702 14198.62 4289344019
592.03003 5896.3301 14200.31 4289344019
599.46997 5890.8901 14200.63 4289344019
604.28998 5887.8301 14198.34 4289344019
608.78998 5887.2598 14200 4289344019
614.03003 5899.1699 14204.8 4289344019
616.88 5888.1899 14204.25 4289344019
625.09998 5884.9702 14198.62 4289344019
634.96002 5897.0601 14203.13 4289344019
637.82001 5891.8101 14195.21 4289344019
642.59003 5893.6602 14200.84 4289344019
345.95001 5930.3999 14202.48 4289344019
350.29999 5926.8301 14202.24 4289344019
353.67001 5925.9502 14202.53 4289344019
358.64999 5923.4302 14206.81 4289344019
364.23001 5930.7598 14200.25 4289344019
368.73001 5929.7998 14200.54 4289344019
372.10001 5928.9199 14200.81 4289344019
376.07999 5928.6699 14200.81 4289344019
385.89999 5930.3999 14206.44 4289344019
390.25 5927.1699 14199.43 4289344019
393.78 5928.77 14201.92 4289344019
402.66 5924.98 14200 4289344019
407.70999 5923.7402 14203.62 4289344019
411.98999 5919.6201 14200.23 4289344019
415.20001 5916.6602 14201.37 4289344019
420.44 5926.2002 14203.96 4289344019
425.35999 5923.1802 14203.34 4289344019
429.07999 5919.29 14196.61 4289344019
437.28 5922.1499 14206.77 4289344019
441.12 5920.0801 14202.53 4289344019
445.95001 5915.9902 14197.47 4289344019
450.20999 5919.5 14200.86 4289344019
454.07999 5917.8999 14199.67 4289344019
458.09 5918.1099 14202.81 4289344019
461.82001 5914.6699 14199.14 4289344019
466.76001 5912.23 14199.99 4289344019
471.47 5921.2598 14199.43 4289344019
474.88 5920.8901 14201.1 4289344019
479.04001 5915.8701 14201.43 4289344019
483.92001 5919.6802 14209.54 4289344019
487.79001 5911.2202 14199.71 4289344019
491.72 5910.4199 14196.65 4289344019
495.78 5911.2402 14199.42 4289344019
501.14999 5920.7598 14200.25 4289344019
504.64001 5907.96 14197.22 4289344019
510.91 5921.1299 14203.11 4289344019
514.66998 5918.3999 14197.39 4289344019
517.95001 5916.7002 14199.72 4289344019
523 5915.5698 14200 4289344019
527.19 5911.2598 14198.28 4289344019
531.71002 5910.6899 14201.71 4289344019
534.53998 5904.1299 14194.36 4289344019
540.88 5917.2598 14200.25 4289344019
545.12 5913.6299 14198.24 4289344019
549.71002 5913.8301 14199.72 4289344019
554.07001 5911.54 14197.14 4289344019
557.40997 5910.54 14197.43 4289344019
562.01001 5910.79 14197.14 4289344019
566.58002 5910.77 14201.96 4289344019
571.69 5910.4399 14198.53 4289344019
575.65997 5910.0601 14198.53 4289344019
578.70001 5905.96 14195.23 4289344019
583.57001 5903.2202 14199.42 4289344019
587.84998 5900.2598 14197.22 4289344019
593.09998 5907.0601 14197.43 4289344019
597.04999 5906.5 14200.86 4289344019
600.67999 5902.8701 14198.85 4289344019
605.58002 5900.4199 14198.04 4289344019
610.03003 5899.1699 14199.99 4289344019
615.14001 5909.8999 14201.92 4289344019
622.77002 5906.1499 14194.91 4289344019
626.35999 5896.8799 14198.61 4289344019
630.76001 5895.21 14195.75 4289344019
635.92999 5906.1201 14194.34 4289344019
354.95001 5937.8799 14202.5 4289344019
359.29999 5934.21 14203.92 4289344019
365.03 5943.8799 14202.98 4289344019
369.54999 5942.9302 14203.26 4289344019
372.85001 5940.8799 14200.78 4289344019
377.51999 5942.3701 14205.03 4289344019
381.92001 5939.6201 14201.07 4289344019
387.17001 5941.1299 14203.55 4289344019
391.28 5942.7402 14206.12 4289344019
394.66 5941.9399 14204.74 4289344019
399.57999 5938.6299 14197.64 4289344019
404.04001 5936.8999 14199.97 4289344019
408.45999 5934.54 14200.83 4289344019
412.91 5932.77 14203.07 4289344019
416.07999 5929.23 14202.83 4289344019
421.94 5939.2798 14206.69 4289344019
426.26001 5935.7202 14204.69 4289344019
430.64001 5932.9702 14200.83 4289344019
433.95999 5931.4302 14199.64 4289344019
437.94 5931.1401 14199.64 4289344019
442.67001 5933.1499 14205.26 4289344019
447.04001 5930.3999 14201.4 4289344019
451.73001 5931.9902 14202.21 4289344019
455 5929.8501 14199.64 4289344019
458.92999 5928.8701 14199.92 4289344019
463.45999 5928.3501 14203.35 4289344019
467.67001 5923.6699 14196.82 4289344019
472.56 5934.9502 14203.55 4289344019
475.88 5933.4199 14202.45 4289344019
480 5927.8198 14201.4 4289344019
485.17001 5928.0801 14201.11 4289344019
488.82999 5923.7402 14201.06 4289344019
493.48001 5924.6602 14202.25 4289344019
496.82999 5923.7598 14200.78 4289344019
502.20999 5933.2798 14201.6 4289344019
506.42001 5922.2002 14202.83 4289344019
512.03998 5934.23 14205.84 4289344019
515.96997 5933.3701 14202.7 4289344019
519.63 5929.27 14199.4 4289344019
524.15997 5928.6602 14202.74 4289344019
528.15002 5922 14195.39 4289344019
532.72998 5922.1099 14198.54 4289344019
537.70001 5932.6401 14205.56 4289344019
541.96997 5929.2002 14200.22 4289344019
546.28003 5926.1899 14199.68 4289344019
550.88 5926.3398 14201.07 4289344019
555.29999 5924.6602 14199.97 4289344019
558.53003 5922.4702 14197.4 4289344019
563.47998 5926.3198 14203.83 4289344019
568.23999 5922.0698 14200.54 4289344019
572.62 5920.02 14192.87 4289344019
576.77002 5921.4102 14197.11 4289344019
580.03998 5919.7202 14197.68 4289344019
584.63 5913.9502 14196.54 4289344019
589.03003 5912.1499 14197.11 4289344019
594.29999 5918.9902 14197.4 4289344019
598.59003 5916.0801 14193.44 4289344019
601.96002 5915.3701 14200.21 4289344019
606.79999 5912.3398 14198.01 4289344019
611.20001 5910.5801 14196.82 4289344019
616.77002 5920.0098 14197.64 4289344019
619.08002 5909.1802 14195.44 4289344019
624.21997 5919.8999 14197.36 4289344019
627.69 5909.3701 14199.96 4289344019
632.59998 5907.0601 14195.72 4289344019
378.13 5951.9399 14199.26 4289344019
382.85001 5954.0098 14204.89 4289344019
388.03 5954.3599 14204.6 4289344019
392.48001 5952.3198 14200.45 4289344019
396.01999 5953.8301 14204.6 4289344019
400.51001 5952.3701 14201.84 4289344019
404.76999 5947.6602 14197.07 4289344019
409.85001 5946.4302 14200.7 4289344019
413.82999 5945.9902 14204.13 4289344019
417.67999 5951.9502 14199.89 4289344019
422.70999 5950.04 14203.79 4289344019
427.04001 5946.52 14201.88 4289344019
431.69 5947.3501 14204.65 4289344019
439.39999 5950.8901 14202.93 4289344019
443.92001 5949.9702 14201.55 4289344019
447.89001 5941.73 14199.88 4289344019
452.60001 5943.3301 14200.7 4289344019
456.51999 5949.6001 14202.93 4289344019
459.94 5942.02 14202.74 4289344019
464.29999 5939.1099 14200.46 4289344019
468.70001 5936.8101 14199.65 4289344019
474.17999 5948.0498 14206.36 4289344019
477.45001 5945.8999 14203.79 4289344019
480.92001 5939.1499 14199.88 4289344019
486.25 5941.1899 14203.84 4289344019
490.53 5937.52 14203.6 4289344019
494.32001 5934.8301 14197.98 4289344019
497.94 5936.96 14201.84 4289344019
503.23001 5945.25 14201.55 4289344019
507.5 5934.7798 14202.41 4289344019
512.81 5943.2202 14198.69 4289344019
516.90997 5944.1602 14199.89 4289344019
520.62 5940.5898 14197.88 4289344019
525.06 5938.8301 14198.45 4289344019
529.90002 5941.7202 14198.69 4289344019
533.96997 5935.8198 14202.74 4289344019
538.66998 5943.3901 14202.65 4289344019
542.84998 5938.7998 14194.54 4289344019
547.94 5938.0298 14199.55 4289344019
552.39001 5936.4502 14196.79 4289344019
556.35999 5935.98 14198.45 4289344019
559.89001 5936.8599 14201.31 4289344019
564.34003 5935.3301 14196.79 4289344019
569.32001 5933.3799 14199.03 4289344019
574 5934.2998 14198.45 4289344019
578.03998 5934.4902 14199.84 4289344019
581.83002 5932.1699 14199.03 4289344019
585.82001 5925.98 14194.83 4289344019
591.46997 5936.5801 14198.41 4289344019
596.06 5930.8599 14197.36 4289344019
600.03998 5930.3599 14199.03 4289344019
602.98999 5925.5298 14195.93 4289344019
608.09003 5924.8398 14199.36 4289344019
612.44 5922.5 14196.79 4289344019
618.33002 5934.96 14202.93 4289344019
620.39001 5921.6802 14196.79 4289344019
625.59998 5933.0298 14200.17 4289344019
629.40997 5920.1401 14195.4 4289344019
633.95001 5919.6602 14195.4 4289344019
396.78 5965.2202 14203.17 4289344019
405.67001 5960.7798 14199.79 4289344019
410.84 5960.8501 14204.6 4289344019
414.62 5957.3301 14202.6 4289344019
418.48001 5963.3101 14198.35 4289344019
423.48001 5960.9102 14199.21 4289344019
427.85001 5957.8599 14200.36 4289344019
432.47 5958.1099 14201.74 4289344019
436.34 5955.98 14199.26 4289344019
439.88 5957.4102 14205.17 4289344019
444.28 5954.8101 14197.88 4289344019
448.66 5951.9102 14195.6 4289344019
453.45999 5954.7002 14199.26 4289344019
456.82999 5953.7598 14199.55 4289344019
461.53 5955.0898 14205.46 4289344019
465.20001 5950.54 14197.27 4289344019
469.69 5949.3398 14200.98 4289344019
474.85001 5956.4502 14197.83 4289344019
478.26999 5956.0801 14199.5 4289344019
482.45999 5951.0601 14199.84 4289344019
487.62 5957.96 14200.02 4289344019
495.37 5947.3599 14199.31 4289344019
498.98999 5949.4902 14203.18 4289344019
504.5 5960.2402 14206.83 4289344019
508.37 5944.96 14198.13 4289344019
513.84003 5955.1699 14198.64 4289344019
518 5956.7002 14201.21 4289344019
521.91998 5955.4702 14204.84 4289344019
526.37 5953.71 14205.41 4289344019
530.42999 5947.6602 14199.55 4289344019
534.98999 5947.1499 14201.22 4289344019
539.64001 5954.1602 14199.73 4289344019
544.15002 5953.0601 14200.02 4289344019
549.09998 5950.5498 14200.88 4289344019
553.5 5948.3901 14196.74 4289344019
557.65002 5949.7002 14202.64 4289344019
560.96002 5948.1802 14199.79 4289344019
566.15997 5948.3701 14199.5 4289344019
570.46997 5945.3198 14198.98 4289344019
575.21002 5946.8198 14199.79 4289344019
579.65997 5945.2202 14197.02 4289344019
582.95001 5943.52 14197.59 4289344019
587.62 5938.4302 14196.17 4289344019
597.33002 5943.4702 14197.02 4289344019
601.01001 5939.9302 14193.35 4289344019
604.90002 5938.5898 14198.74 4289344019
613.72998 5935.0098 14198.13 4289344019
619.39001 5945.1201 14198.64 4289344019
621.70001 5934.1802 14198.13 4289344019
630.73999 5932.6401 14196.74 4289344019
433.42001 5971.2798 14204.54 4289344019
437.29999 5969.1099 14201.97 4289344019
440.73001 5968.8501 14201.97 4289344019
445.22 5967.3501 14199.21 4289344019
450.81 5972.79 14201.63 4289344019
454.45999 5967.8198 14201.97 4289344019
457.98999 5968.7598 14204.83 4289344019
462.88 5972.4902 14203.1 4289344019
466.22 5963.7002 14200.07 4289344019
470.59 5960.6802 14199.45 4289344019
475.89999 5969.5698 14200.53 4289344019
479.14001 5966.9399 14194.91 4289344019
483.92001 5969.0298 14198.86 4289344019
488.06 5963.3198 14199.49 4289344019
492.41 5960.23 14200.64 4289344019
496.35999 5959.27 14199.17 4289344019
500.14001 5963.23 14207.36 4289344019
505.92999 5970.3599 14202.53 4289344019
509.44 5957.4902 14199.45 4289344019
514.97998 5968.3799 14199.67 4289344019
519.03998 5968.6099 14201.05 4289344019
522.87 5966.23 14201.92 4289344019
527.38 5965.1499 14202.2 4289344019
531.59998 5960.7598 14202.26 4289344019
536.54999 5964.5298 14198.86 4289344019
540.89001 5967.8799 14203.91 4289344019
545.19 5964.4302 14198.58 4289344019
550.21002 5962.6001 14199.15 4289344019
554.71997 5961.5 14199.44 4289344019
558.77002 5961.7002 14200.82 4289344019
562.65997 5960.0698 14199.73 4289344019
567.34998 5960.8901 14200.82 4289344019
571.60999 5957.2598 14198.92 4289344019
576.48999 5960.02 14200.82 4289344019
581 5958.8901 14201.11 4289344019
584.40997 5958.3999 14204.54 4289344019
588.85999 5950.9502 14197.5 4289344019
592.78003 5949.77 14199.45 4289344019
602.39001 5953.6001 14197.44 4289344019
606.16998 5951.1001 14200.07 4289344019
611.09998 5948.6001 14199.17 4289344019
615.46997 5946.2998 14196.69 4289344019
620.5 5955.8501 14195.72 4289344019
622.82001 5944.9502 14195.31 4289344019
446.20001 5980.48 14201.9 4289344019
451.17001 5977.5298 14199.62 4289344019
455.60001 5982.8301 14207.23 4289344019
458.72 5978.3198 14199.04 4289344019
463.34 5978.3999 14203.86 4289344019
467.20001 5976.2402 14201.38 4289344019
471.57999 5973.2402 14200.77 4289344019
476.85999 5981.6299 14198.79 4289344019
480.38 5982.4199 14203.22 4289344019
484.45001 5975.5498 14201.09 4289344019
489.13 5976.4399 14202.19 4289344019
493.44 5972.7598 14201.96 4289344019
497.56 5973.6899 14203.05 4289344019
500.89999 5972.2002 14200.2 4289344019
506.73999 5979.9199 14196.74 4289344019
510.57001 5970.6499 14202.24 4289344019
516.16998 5982.1201 14203.83 4289344019
520.54999 5979.3599 14198.21 4289344019
523.90997 5978.1802 14201.84 4289344019
528.48999 5977.6802 14203.51 4289344019
533.29999 5973.3398 14201.9 4289344019
537.65002 5970.3701 14199.62 4289344019
541.82001 5978.1499 14197.93 4289344019
546.44 5978.1201 14202.65 4289344019
551.31 5974.54 14199.08 4289344019
555.84003 5973.5 14197.61 4289344019
560 5974.8101 14203.51 4289344019
563.78003 5972.0098 14199.66 4289344019
568.37 5971.6401 14197.89 4289344019
572.82001 5969.8398 14198.47 4289344019
577.59003 5971.3799 14199.37 4289344019
582.22998 5971.5098 14200.75 4289344019
585.34003 5967.9399 14198.76 4289344019
590.15997 5964.04 14200.2 4289344019
594.53998 5961.6699 14199.38 4289344019
599.84003 5968.5 14199.66 4289344019
603.71997 5966.7402 14200.23 4289344019
607.92999 5968.4199 14197.61 4289344019
612.39001 5961.21 14198.81 4289344019
616.58002 5957.04 14193.76 4289344019
460.29999 5991.4502 14201.82 4289344019
464.26999 5990.46 14202.11 4289344019
469.19 5994.1802 14200.38 4289344019
477.91 5994.7598 14201.47 4289344019
481.25 5993.2202 14200.38 4289344019
485.37 5986.9902 14197.87 4289344019
490.73999 5989.0298 14201.82 4289344019
494.32999 5983.5298 14199.02 4289344019
498.41 5983.8701 14198.74 4289344019
502.57001 5985.3101 14202.97 4289344019
507.89999 5993.6602 14200.89 4289344019
513.14001 5993.8999 14200.61 4289344019
517.66998 5992.8301 14200.89 4289344019
521.84998 5994.2598 14205.13 4289344019
525.33002 5987.7202 14196.14 4289344019
530.02002 5988.4199 14200.67 4289344019
534.41998 5985.8799 14203.2 4289344019
538.58002 5980.6401 14193.64 4289344019
543.41998 5989.4302 14196.37 4289344019
548.16998 5990.7002 14202.27 4289344019
552.40997 5986.46 14198.91 4289344019
557.10999 5987.23 14201.76 4289344019
561.64001 5986.1299 14202.05 4289344019
564.90997 5983.9199 14199.48 4289344019
569.40002 5982.4199 14195.05 4289344019
574.65997 5982.9302 14201.24 4289344019
579.32001 5983.23 14199.19 4289344019
583.21997 5981.6699 14196.43 4289344019
586.34003 5978.1001 14194.44 4289344019
591.21997 5974.8198 14197.36 4289344019
595.60999 5972.3999 14196.45 4289344019
600.97998 5979.8198 14198.1 4289344019
608.60999 5975.0298 14198.16 4289344019
613.79999 5974.9302 14202.97 4289344019
474.14001 5998.3799 14201.7 4289344019
486.39001 5999.5298 14199.17 4289344019
491.67001 6000.3799 14200.26 4289344019
495.89999 5995.4502 14198.94 4289344019
500.17001 5998.1602 14204.26 4289344019
504.13 6003.8799 14203.34 4289344019
508.76999 6003.8301 14196.57 4289344019
518.65002 6004.1602 14199.33 4289344019
526.70001 6003.3101 14202.76 4289344019
531.13 6000.96 14201.96 4289344019
535.28003 5995.4702 14197.5 4289344019
539.87 5994.96 14199.17 4289344019
544.56 6001.9702 14197.66 4289344019
549.26001 6002.6602 14202.18 4289344019
554.09003 5998.3599 14198.81 4289344019
557.95001 5996.1899 14194.58 4289344019
562.82001 5998.6602 14203.34 4289344019
566.15002 5997.0801 14202.25 4289344019
570.82001 5997.3799 14200.19 4289344019
575.63 5993.1001 14196.92 4289344019
584.48999 5994.79 14199.1 4289344019
588.38 5993.0298 14199.68 4289344019
598.10999 5997.46 14199.04 4289344019
504.59 6009.3101 14201.02 4289344019
514.21997 6006.54 14200.22 4289344019
519.64001 6015.54 14197.84 4289344019
531.96997 6010.5098 14196.15 4289344019
536.5 6009.1802 14201.54 4289344019
541.04999 6008.0801 14201.83 4289344019
545.75 6015.0898 14200.31 4289344019
555.35999 6012.1001 14202.95 4289344019
559.69 6008.6802 14195.86 4289344019
563.77002 6008.8301 14199 4289344019
567.16998 6007.9199 14197.62 4289344019
572.01001 6009.9102 14201.47 4289344019
576.78003 6005.0098 14196.73 4289344019
586.28998 6007.2598 14200.38 4289344019
589.44 6003.7798 14196.73 4289344019
594.34998 6000.5098 14199.64 4289344019
528.84998 6027.8301 14203.92 4289344019
542.17999 6020.6299 14203.1 4289344019
551.40002 6025.96 14200.49 4289344019
556.35999 6022.9502 14198.31 4289344019
560.96997 6022.4302 14199.98 4289344019
565.07001 6022.6401 14201.36 4289344019
568.35999 6020.46 14198.89 4289344019
573.78998 6022.4399 14202.83 4289344019
578.03998 6018.1699 14199.47 4289344019
582.72998 6018.46 14197.42 4289344019
562.21002 6035.6602 14200.95 4289344019
566.25 6035.1802 14202.62 4289344019
570.22998 6034.1201 14202.91 4289344019
574.91998 6034.3599 14202.62 4289344019
