# .PCD v0.7 - Point Cloud Data file format
VERSION 0.7
FIELDS x y z rgb
SIZE 4 4 4 4
TYPE F F F U
COUNT 1 1 1 1
WIDTH 67
HEIGHT 1
VIEWPOINT 0 0 0 1 0 0 0
POINTS 67
DATA ascii
1108.96 5736.5498 14008.46 4282663408
1113.12 5731.4902 14000.34 4282663408
1117.17 5728.8999 13996.09 4282663408
1125.85 5726.6099 13994.71 4282663408
1103.79 5748.2402 13995.84 4282663408
1107.16 5744.9502 13995.29 4282663408
1110.53 5741.71 13993 4282663408
1114.7 5739.6299 13991.89 4282663408
1119.33 5739.9502 13994.75 4282663408
1124.02 5737.6602 13995.32 4282663408
1127.92 5737.1499 13990.23 4282663408
1131.77 5736.3901 13990.23 4282663408
1096.95 5763.3198 14015 4282663408
1102 5762.77 13993.36 4282663408
1106.02 5759.8701 13995.87 4282663408
1109.72 5755.29 13992.47 4282663408
1112.89 5753.8999 13994.42 4282663408
1122.26 5752.0298 13996.17 4282663408
1126.29 5749.2402 13995.26 4282663408
1130.08 5748.1499 13988.79 4282663408
1133.9399 5747.3901 13988.79 4282663408
1088.3101 5781.2798 14009.9 4282663408
1090.9399 5773.9302 13999.5 4282663408
1093.92 5768.46 13989.92 4282663408
1097.96 5765.5898 13992.52 4282663408
1104 5773.2402 13990.52 4282663408
1108.8101 5771.3901 13995.89 4282663408
1112.1899 5768.0601 13995.26 4282663408
1119.98 5763.9102 13994.72 4282663408
1124.29 5762.48 13993.34 4282663408
1084.99 5788.02 13994.14 4282663408
1089.63 5788.2798 13998.66 4282663408
1093.7 5785.46 13999.51 4282663408
1097.77 5788.79 13997.82 4282663408
1100.0601 5776.6201 13991.06 4282663408
1106.6899 5787.2798 13994.49 4282663408
1110.71 5781.27 13991.66 4282663408
1114.3199 5779.1201 13993.89 4282663408
1078.38 5801.8999 13995.52 4282663408
1082.29 5801.2598 13993.86 4282663408
1091.71 5796.3101 13990.19 4282663408
1095.14 5793.1099 13987.99 4282663408
1098.88 5794.6299 13996.94 4282663408
1102.4 5788.9102 13990.79 4282663408
1108.6801 5794.6899 13984.53 4282663408
1068.49 5820.1499 14001.95 4282663408
1072.1899 5815.1899 13993.85 4282663408
1076.67 5814.4502 13992.18 4282663408
1080.4399 5812.98 13994.13 4282663408
1084.46 5812.9102 13993.85 4282663408
1089.6899 5813.1201 13996.61 4282663408
1093.91 5807.9502 13990.18 4282663408
1097.78 5807.0801 13993.6 4282663408
1100.98 5805.7002 13995.55 4282663408
1065.36 5828.2402 14013.81 4282663408
1069.88 5827.71 13992.07 4282663408
1082.28 5822.8701 13989.88 4282663408
1095.88 5818.4102 13987.31 4282663408
1099.54 5816.3501 13987.88 4282663408
1102.08 5811.4902 13981.45 4282663408
1068.33 5844.52 13996.8 4282663408
1072.13 5839.9502 13993.42 4282663408
1097.52 5827.1401 13980.29 4282663408
1074.62 5850.3599 13990.62 4282663408
1079.2 5850.0298 13993.67 4282663408
1083.49 5848.1699 13987.49 4282663408
1063.55 5859.6201 13992.49 4282663408
