# .PCD v0.7 - Point Cloud Data file format
VERSION 0.7
FIELDS x y z rgb
SIZE 4 4 4 4
TYPE F F F U
COUNT 1 1 1 1
WIDTH 82
HEIGHT 1
VIEWPOINT 0 0 0 1 0 0 0
POINTS 82
DATA ascii
614.44 5322.5898 14104.72 4278892498
618.15002 5314.5498 14084.81 4278892498
611.75 5335.29 14106.57 4278892498
615.34998 5330.5098 14095.17 4278892498
605.72998 5341.5601 14094.72 4278892498
611.85999 5336.1899 14078.51 4278892498
599.34003 5358.6201 14104.79 4278892498
602.52002 5349.9302 14085.15 4278892498
606.14001 5345.1299 14073.76 4278892498
590.32001 5376 14106.8 4278892498
593.78998 5374.25 14107.32 4278892498
595.82001 5364.4199 14086.46 4278892498
583.87 5388.6299 14097.32 4278892498
586.84998 5382.4199 14088.11 4278892498
590.65002 5378.98 14084.33 4278892498
578.10999 5403.1499 14096.93 4278892498
580.14001 5397.7002 14087.47 4278892498
571.59998 5415.9399 14093.89 4278892498
575.09998 5409.3398 14079.88 4278892498
562.29999 5437.6099 14090.86 4278892498
564.34003 5426.8901 14089.98 4278892498
555.22998 5445.8901 14104.25 4278892498
558.71997 5438.7402 14088.85 4278892498
545.37 5468.6401 14113.85 4278892498
549.09998 5463.5898 14105.9 4278892498
551.71002 5457.9302 14098.12 4278892498
555.03003 5443.8999 14069.08 4278892498
558.78998 5439.48 14060.77 4278892498
541.25 5469.8198 14103.79 4278892498
546.08002 5470.3999 14088.57 4278892498
548.84003 5460.9902 14069.25 4278892498
532.14001 5496.02 14118.43 4278892498
535.07001 5493.2798 14116.17 4278892498
538.91998 5483.8101 14105 4278892498
541.81 5475.4502 14088.38 4278892498
528.90002 5506.5298 14114.46 4278892498
532.41998 5498.9399 14096.02 4278892498
534.85999 5491.1802 14080.91 4278892498
525.29999 5513.4702 14105.33 4278892498
528.84998 5500.5 14069.34 4278892498
515.46997 5533.9399 14119.06 4278892498
518.16998 5528.52 14107.98 4278892498
521.47998 5518.2202 14080.73 4278892498
508.29999 5543.23 14109.12 4278892498
512.14001 5538.3799 14097.77 4278892498
515.32001 5532.3198 14085.2 4278892498
517.96997 5526.3501 14072.72 4278892498
508.51001 5545.5 14085.21 4278892498
512.03003 5537.27 14065.31 4278892498
500.82001 5561.3198 14115.39 4278892498
504.48001 5554.3501 14086.82 4278892498
490.81 5582 14115.75 4278892498
494.41 5573.8999 14104.09 4278892498
497.76999 5563.2998 14080.19 4278892498
500.82001 5561.3301 14085.8 4278892498
483.70001 5593.3799 14103.31 4278892498
487.04001 5588.2002 14096.96 4278892498
490.70999 5580.8799 14083.38 4278892498
494.41 5573.8799 14074.51 4278892498
480.76999 5603.2202 14097.79 4278892498
484.04001 5597.2798 14083.67 4278892498
487.04001 5588.1802 14067.48 4278892498
472.53 5614.6899 14095.22 4278892498
477.10001 5611.0498 14114.6 4278892498
480.42001 5599.23 14058.36 4278892498
469.19 5626.6499 14118.46 4278892498
473.25 5616.8101 14071.3 4278892498
477.23999 5612.6899 14089.29 4278892498
459.5 5640.9199 14114.7 4278892498
462.91 5636.1201 14113.28 4278892498
466.47 5633.0698 14104.46 4278892498
469.60001 5624.9399 14082.94 4278892498
459.91 5645.9399 14097.92 4278892498
463.45001 5636.0898 14082.02 4278892498
466.91 5631.7998 14072.09 4278892498
449.34 5663.8799 14099.25 4278892498
452.32999 5660.23 14090.81 4278892498
456.20001 5654.0098 14089.85 4278892498
459.98999 5646.96 14071.21 4278892498
449.48001 5665.5498 14072.27 4278892498
441.94 5681.0898 14097.52 4278892498
445.69 5673.0498 14084.25 4278892498
