# .PCD v0.7 - Point Cloud Data file format
VERSION 0.7
FIELDS x y z rgb
SIZE 4 4 4 4
TYPE F F F U
COUNT 1 1 1 1
WIDTH 54
HEIGHT 1
VIEWPOINT 0 0 0 1 0 0 0
POINTS 54
DATA ascii
0.050333001 0.035594001 -1.0719 4286082993
0.052273002 0.035650998 -1.0736001 4286082993
0.053899001 0.035642002 -1.0733 4286082993
0.055364002 0.035601001 -1.0721 4286082993
0.050802 0.036725 -1.0748 4286082993
0.052430999 0.036715999 -1.0746 4286082993
0.054058999 0.036706999 -1.0743001 4286082993
0.055525001 0.036664002 -1.073 4286082993
0.057314001 0.036688998 -1.0738 4286082993
0.052273002 0.037755001 -1.0735 4286082993
0.054058999 0.037781 -1.0743001 4286082993
0.05601 0.037841 -1.076 4286082993
0.058130998 0.037935 -1.0786999 4286082993
0.059765998 0.037926 -1.0784 4286082993
0.050020002 0.038736001 -1.0698 4286082993
0.05164 0.038727 -1.0695 4286082993
0.053578999 0.038789 -1.0713 4286082993
0.055686999 0.038887002 -1.0739 4286082993
0.057477999 0.038913 -1.0747 4286082993
0.058775999 0.038830999 -1.0724 4286082993
0.060734998 0.038892999 -1.0741 4286082993
0.049862999 0.039790001 -1.0688 4286082993
0.051956002 0.039889999 -1.0714999 4286082993
0.053578999 0.039880998 -1.0712 4286082993
0.055525001 0.039944001 -1.0729001 4286082993
0.057314001 0.039971001 -1.0736001 4286082993
0.058940999 0.039960999 -1.0734 4286082993
0.051956002 0.040961001 -1.0714 4286082993
0.053899001 0.041026998 -1.0731 4286082993
0.055525001 0.041017 -1.0729001 4286082993
0.057151001 0.041005999 -1.0726 4286082993
0.058775999 0.040996 -1.0723 4286082993
0.060734998 0.041060999 -1.074 4286082993
0.051481999 0.041901998 -1.0684 4286082993
0.053739 0.042047001 -1.0721 4286082993
0.055041 0.041958999 -1.0699 4286082993
0.057151001 0.042064998 -1.0726 4286082993
0.058775999 0.042054001 -1.0723 4286082993
0.062531002 0.042148001 -1.0747 4286082993
0.056497999 0.042950999 -1.0686001 4286082993
0.058281001 0.04298 -1.0693001 4286082993
0.060233999 0.043048002 -1.071 4286082993
0.062531002 0.043195002 -1.0747 4286082993
0.063818999 0.043104999 -1.0724 4286082993
0.054878999 0.04403 -1.0688 4286082993
0.056823999 0.044100001 -1.0705 4286082993
0.058281001 0.044048999 -1.0693001 4286082993
0.059734002 0.043997001 -1.068 4286082993
0.063478999 0.044096 -1.0704 4286082993
0.060233999 0.045217 -1.0709 4286082993
0.062024999 0.045247 -1.0716 4286082993
0.063818999 0.045276999 -1.0723 4286082993
0.061857 0.046296 -1.0706 4286082993
0.065272003 0.047398999 -1.071 4286082993
