# .PCD v0.7 - Point Cloud Data file format
VERSION 0.7
FIELDS x y z rgb
SIZE 4 4 4 4
TYPE F F F U
COUNT 1 1 1 1
WIDTH 58
HEIGHT 1
VIEWPOINT 0 0 0 1 0 0 0
POINTS 58
DATA ascii
-0.21707 0.02901 -1.0659 4292707529
-0.21558 0.029043 -1.0671 4292707529
-0.21409 0.029075 -1.0683 4292707529
-0.21247 0.029081 -1.0685 4292707529
-0.2111 0.029139999 -1.0707 4292707529
-0.20948 0.029146001 -1.0709 4292707529
-0.20796999 0.029177999 -1.0721 4292707529
-0.20623 0.029155999 -1.0713 4292707529
-0.20461001 0.029161001 -1.0714999 4292707529
-0.2031 0.029193001 -1.0726 4292707529
-0.20148 0.029198 -1.0728 4292707529
-0.19984999 0.029203 -1.073 4292707529
-0.19844 0.029262001 -1.0752 4292707529
-0.19660001 0.029213 -1.0734 4292707529
-0.19475999 0.029163999 -1.0714999 4292707529
-0.19314 0.029168 -1.0717 4292707529
-0.19152001 0.029173 -1.0719 4292707529
-0.18999 0.029204 -1.073 4292707529
-0.18846001 0.029236 -1.0742 4292707529
-0.18693 0.029267 -1.0754 4292707529
-0.18529999 0.029270999 -1.0755 4292707529
-0.21763 0.029832 -1.0577 4292707529
-0.21616 0.029866001 -1.0589 4292707529
-0.21321 0.029933 -1.0613 4292707529
-0.21025001 0.030001 -1.0637 4292707529
-0.20863999 0.030006001 -1.0639 4292707529
-0.20703 0.030012 -1.0641 4292707529
-0.20507 0.029933 -1.0613 4292707529
-0.20322999 0.029882001 -1.0595 4292707529
-0.20163 0.029887 -1.0597 4292707529
-0.20014 0.029921001 -1.0609 4292707529
-0.19853 0.029926 -1.0611 4292707529
-0.19693001 0.029931 -1.0612 4292707529
-0.19543 0.029963 -1.0624 4292707529
-0.19351 0.029883999 -1.0596 4292707529
-0.21417999 0.030843001 -1.0561 4292707529
-0.21258999 0.030849 -1.0563 4292707529
-0.20714 0.031104 -1.0651 4292707529
-0.20381001 0.031086 -1.0645 4292707529
-0.20219 0.031091999 -1.0646 4292707529
-0.20058 0.031097 -1.0648 4292707529
-0.19908001 0.031130999 -1.066 4292707529
-0.19735999 0.031106999 -1.0652 4292707529
-0.19564 0.031083001 -1.0644 4292707529
-0.19403 0.031088 -1.0645 4292707529
-0.19242001 0.031093 -1.0647 4292707529
-0.20726 0.032212999 -1.066 4292707529
-0.20058 0.032175001 -1.0648 4292707529
-0.19908001 0.032210998 -1.066 4292707529
-0.19724999 0.032156002 -1.0642 4292707529
-0.19585 0.032221001 -1.0663 4292707529
-0.19414 0.032196 -1.0655 4292707529
-0.19262999 0.032230999 -1.0667 4292707529
-0.1893 0.032210998 -1.066 4292707529
-0.19543 0.03317 -1.0623 4292707529
-0.19393 0.033206001 -1.0635 4292707529
-0.19232 0.033211999 -1.0635999 4292707529
-0.19070999 0.033217002 -1.0638 4292707529
