# .PCD v0.7 - Point Cloud Data file format
VERSION 0.7
FIELDS x y z rgb
SIZE 4 4 4 4
TYPE F F F U
COUNT 1 1 1 1
WIDTH 224
HEIGHT 1
VIEWPOINT 0 0 0 1 0 0 0
POINTS 224
DATA ascii
-0.81487 -0.50858998 -1.1624 4292781517
-0.81272 -0.50612998 -1.1598001 4292781517
-0.81022 -0.50629997 -1.1602 4292781517
-0.81252003 -0.50312001 -1.1561 4292781517
-0.80627 -0.50092 -1.151 4292781517
-0.80700999 -0.50309998 -1.1561 4292781517
-0.80842 -0.50108999 -1.1547 4292781517
-0.80486 -0.50057 -1.1535 4292781517
-0.80787998 -0.49957001 -1.1544 4292781517
-0.80378997 -0.49871999 -1.1524 4292781517
-0.80558997 -0.50155997 -1.159 4292781517
-0.81898999 -0.50357002 -1.1669 4292781517
-0.80627 -0.49737999 -1.1526 4292781517
-0.80378997 -0.49754 -1.1529 4292781517
-0.81487 -0.50160003 -1.1655 4292781517
-0.80432999 -0.49675 -1.1542 4292781517
-0.80719 -0.50024998 -1.1623 4292781517
-0.81111002 -0.49814001 -1.1605 4292781517
-0.80432999 -0.49564001 -1.1547 4292781517
-0.80290997 -0.49645999 -1.1566 4292781517
-0.80572999 -0.49364001 -1.1533 4292781517
-0.80378997 -0.49412 -1.1544 4292781517
-0.80879003 -0.49893001 -1.1655999 4292781517
-0.80486 -0.49359 -1.1565 4292781517
-0.80397999 -0.49474001 -1.1592 4292781517
-0.80700999 -0.49373999 -1.1601 4292781517
-0.80397999 -0.49355999 -1.1597 4292781517
-0.80255997 -0.49437001 -1.1616 4292781517
-0.81272 -0.49438 -1.1648999 4292781517
-0.80378997 -0.49057999 -1.1559 4292781517
-0.80185002 -0.49105999 -1.1571 4292781517
-0.80576003 -0.49518001 -1.1668 4292781517
-0.81772 -0.49807999 -1.1766 4292781517
-0.80185002 -0.49000001 -1.1575 4292781517
-0.80043 -0.49081001 -1.1594 4292781517
-0.81718999 -0.49667999 -1.1763 4292781517
-0.80185002 -0.48895001 -1.158 4292781517
-0.79882997 -0.48877001 -1.1575 4292781517
-0.80008 -0.49122 -1.1633 4292781517
-0.81022 -0.4912 -1.1667 4292781517
-0.80131 -0.48741001 -1.1576999 4292781517
-0.80576003 -0.49182999 -1.1682 4292781517
-0.80238003 -0.48679999 -1.1598001 4292781517
-0.80043 -0.48727 -1.1609 4292781517
-0.80432999 -0.49136001 -1.1706001 4292781517
-0.80397999 -0.48658001 -1.1626 4292781517
-0.80150002 -0.48673001 -1.163 4292781517
-0.80273002 -0.48917001 -1.1688 4292781517
-0.80131 -0.48376 -1.1592 4292781517
-0.79936999 -0.48423001 -1.1603 4292781517
-0.80008 -0.48633999 -1.1654 4292781517
-0.80043 -0.48383 -1.1623 4292781517
-0.79900998 -0.48462 -1.1643 4292781517
-0.7999 -0.48245999 -1.1619999 4292781517
-0.79795003 -0.48293 -1.1631 4292781517
-0.79812002 -0.48469999 -1.1674 4292781517
-0.80879003 -0.48504001 -1.1715 4292781517
-0.7999 -0.4813 -1.1625 4292781517
-0.79953998 -0.48274001 -1.166 4292781517
-0.80008 -0.48185 -1.1672 4292781517
-0.80289 -0.48523 -1.1754 4292781517
-0.80114001 -0.48131999 -1.1693 4292781517
-0.796 -0.47984999 -1.1657 4292781517
-0.80255997 -0.47937 -1.1679 4292781517
-0.79742002 -0.4779 -1.1643 4292781517
-0.80023998 -0.48126 -1.1725 4292781517
-0.79847997 -0.47736999 -1.1663001 4292781517
-0.79547 -0.47718999 -1.1659 4292781517
-0.80008 -0.47714999 -1.1691999 4292781517
-0.79759002 -0.47729 -1.1695 4292781517
-0.79615998 -0.47806999 -1.1714 4292781517
-0.79847997 -0.47497001 -1.1673 4292781517
-0.79653001 -0.47543001 -1.1684999 4292781517
-0.79653001 -0.47420001 -1.169 4292781517
-0.79933 -0.47753 -1.1772 4292781517
-0.80129999 -0.47589999 -1.1765 4292781517
-0.79299003 -0.47139001 -1.1687 4292781517
-0.79299003 -0.47025999 -1.1691 4292781517
-0.79351997 -0.46945 -1.1704 4292781517
-0.7942 -0.47148001 -1.1754 4292781517
-0.79457003 -0.46891001 -1.1724 4292781517
-0.80368 -0.47479999 -1.1906 4292781517
-0.80316001 -0.47330001 -1.1903 4292781517
-0.80063999 -0.47343999 -1.1906 4292781517
-0.79917997 -0.47420999 -1.1925 4292781517
-0.80144 -0.46946999 -1.1841 4292781517
-0.79631001 -0.46803999 -1.1805 4292781517
-0.79118001 -0.46542999 -1.1773 4292781517
-0.78921998 -0.46586999 -1.1784 4292781517
-0.79328001 -0.4655 -1.1809 4292781517
-0.79132003 -0.46595001 -1.1821001 4292781517
-0.78987002 -0.46669999 -1.184 4292781517
-0.79104 -0.46143001 -1.1739 4292781517
-0.78908002 -0.46188 -1.1751 4292781517
-0.78711998 -0.46232 -1.1762 4292781517
-0.79223001 -0.46261999 -1.1802 4292781517
-0.78974003 -0.46274999 -1.1806 4292781517
-0.78672999 -0.46257001 -1.1801 4292781517
-0.79101998 -0.46675 -1.1908 4292781517
-0.79171002 -0.46110001 -1.1799001 4292781517
-0.78921998 -0.46123001 -1.1803 4292781517
-0.78359997 -0.45950001 -1.1758 4292781517
-0.78163999 -0.45993999 -1.1769 4292781517
-0.78961003 -0.45862001 -1.1772 4292781517
-0.78555 -0.45783001 -1.1752 4292781517
-0.78046 -0.45640999 -1.1715 4292781517
-0.78737003 -0.4621 -1.1862 4292781517
-0.78869998 -0.45853001 -1.1804 4292781517
-0.78307998 -0.45681 -1.176 4292781517
-0.78267998 -0.45817 -1.1795 4292781517
-0.78816998 -0.4571 -1.1799999 4292781517
-0.78464001 -0.45660999 -1.1788 4292781517
-0.78267998 -0.45705 -1.1799001 4292781517
-0.79696 -0.45943001 -1.1897 4292781517
-0.78659999 -0.45495999 -1.1781 4292781517
-0.78151 -0.45355001 -1.1745 4292781517
-0.77956003 -0.45398 -1.1756001 4292781517
-0.79289001 -0.45738 -1.1881 4292781517
-0.78254998 -0.45291999 -1.1765 4292781517
-0.78008002 -0.45304 -1.1769 4292781517
-0.80022001 -0.46039999 -1.1998 4292781517
-0.78882003 -0.45534 -1.1866 4292781517
-0.78477001 -0.45455 -1.1845 4292781517
-0.78487998 -0.4562 -1.1888 4292781517
-0.79394001 -0.45548001 -1.1907001 4292781517
-0.78151 -0.44983 -1.1759 4292781517
-0.77851999 -0.44964001 -1.1754 4292781517
-0.78726 -0.45208001 -1.1851 4292781517
-0.77746999 -0.44793999 -1.1742001 4292781517
-0.77968001 -0.4508 -1.1817 4292781517
-0.79144001 -0.45342001 -1.1919 4292781517
-0.78632998 -0.45203 -1.1882 4292781517
-0.78435999 -0.45245001 -1.1892999 4292781517
-0.79299998 -0.45309001 -1.1947 4292781517
-0.78267998 -0.44868001 -1.1831 4292781517
-0.78384 -0.45091999 -1.189 4292781517
-0.79414999 -0.45405999 -1.2011 4292781517
-0.79319 -0.45508999 -1.2039 4292781517
-0.79325998 -0.45673001 -1.2082 4292781517
-0.79883999 -0.45559001 -1.2088 4292781517
-0.77811998 -0.44518 -1.1811 4292781517
-0.76942998 -0.44167 -1.1718 4292781517
-0.77539003 -0.44092 -1.1733 4292781517
-0.77188998 -0.44042999 -1.1720001 4292781517
-0.77876002 -0.44595999 -1.1867 4292781517
-0.78644001 -0.44769999 -1.1948 4292781517
-0.77928001 -0.44512001 -1.1878999 4292781517
-0.78454 -0.44973999 -1.2002 4292781517
-0.78487998 -0.44565001 -1.1928 4292781517
-0.77358001 -0.44068 -1.1795 4292781517
-0.77783 -0.44468999 -1.1902 4292781517
-0.77657002 -0.43966001 -1.1805 4292781517
-0.77460998 -0.44007999 -1.1816 4292781517
-0.78040999 -0.44497001 -1.1947 4292781517
-0.77617002 -0.43974 -1.1844 4292781517
-0.77627999 -0.44135001 -1.1888 4292781517
-0.78254998 -0.44653001 -1.2027 4292781517
-0.78030998 -0.44091001 -1.1913 4292781517
-0.77679002 -0.44042999 -1.1900001 4292781517
-0.77586001 -0.44143999 -1.1927 4292781517
-0.77876002 -0.43882 -1.1892999 4292781517
-0.77679002 -0.43923 -1.1905 4292781517
-0.78307003 -0.44437999 -1.2043999 4292781517
-0.78196001 -0.44100001 -1.1989 4292781517
-0.77792001 -0.44023001 -1.1968 4292781517
-0.77952999 -0.44271001 -1.2036 4292781517
-0.77679002 -0.43687001 -1.1913 4292781517
-0.77534002 -0.43757001 -1.1932 4292781517
-0.77388 -0.43827999 -1.1952 4292781517
-0.77928001 -0.4355 -1.1914999 4292781517
-0.77318001 -0.43356001 -1.1861 4292781517
-0.77636999 -0.43691 -1.1953 4292781517
-0.77542001 -0.43790001 -1.198 4292781517
-0.77266002 -0.43200001 -1.1858 4292781517
-0.77122003 -0.43270001 -1.1877 4292781517
-0.77234 -0.43485999 -1.1937 4292781517
-0.78163999 -0.44174001 -1.2125 4292781517
-0.77938002 -0.43465999 -1.1967 4292781517
-0.77122003 -0.43156001 -1.1881 4292781517
-0.77183002 -0.43342 -1.1933 4292781517
-0.77191001 -0.435 -1.1976 4292781517
-0.77833998 -0.43294001 -1.1955 4292781517
-0.77328002 -0.43158999 -1.1918 4292781517
-0.77594 -0.43461999 -1.2000999 4292781517
-0.77652001 -0.43649 -1.2053 4292781517
-0.77586001 -0.43182999 -1.1962 4292781517
-0.77594 -0.43340001 -1.2006 4292781517
-0.77395999 -0.43380001 -1.2017 4292781517
-0.77842999 -0.43204001 -1.2007 4292781517
-0.77594 -0.43215001 -1.201 4292781517
-0.77344 -0.43226001 -1.2013 4292781517
-0.77146 -0.43266001 -1.2024 4292781517
-0.77636999 -0.42965999 -1.1979001 4292781517
-0.77594 -0.43092999 -1.2015001 4292781517
-0.77241999 -0.43046001 -1.2002 4292781517
-0.77503997 -0.43347001 -1.2085 4292781517
-0.77902001 -0.43145001 -1.2068 4292781517
-0.77304 -0.43263999 -1.2101001 4292781517
-0.78261 -0.43230999 -1.2128 4292781517
-0.77702999 -0.43068999 -1.2083 4292781517
-0.78312999 -0.43144 -1.214 4292781517
-0.77456999 -0.4312 -1.2134 4292781517
-0.77043998 -0.42612001 -1.2029999 4292781517
-0.77095002 -0.42515001 -1.2042 4292781517
-0.76999003 -0.42612001 -1.2069 4292781517
-0.76902002 -0.42708001 -1.2097 4292781517
-0.77146 -0.42427999 -1.2054 4292781517
-0.7705 -0.42524001 -1.2082 4292781517
-0.77155 -0.42735001 -1.2141 4292781517
-0.76999003 -0.42381001 -1.2077 4292781517
-0.76902002 -0.42477 -1.2105 4292781517
-0.77406001 -0.42489001 -1.2147 4292781517
-0.77003002 -0.42414001 -1.2125 4292781517
-0.76804 -0.42451999 -1.2136 4292781517
-0.77253002 -0.42282 -1.2127 4292781517
-0.77054 -0.42321 -1.2138 4292781517
-0.76905 -0.42388001 -1.2157 4292781517
-0.76902002 -0.42109999 -1.2118 4292781517
-0.76804 -0.42205 -1.2145 4292781517
-0.77155 -0.42122999 -1.2163 4292781517
-0.76905 -0.42133 -1.2165999 4292781517
-0.76902002 -0.41865 -1.2126 4292781517
-0.76955003 -0.41686001 -1.219 4292781517
-0.76956999 -0.41591001 -1.2242 4292781517
