# .PCD v0.7 - Point Cloud Data file format
VERSION 0.7
FIELDS x y z rgb
SIZE 4 4 4 4
TYPE F F F U
COUNT 1 1 1 1
WIDTH 136
HEIGHT 1
VIEWPOINT 0 0 0 1 0 0 0
POINTS 136
DATA ascii
-0.60070002 -0.67897999 -1.1971 4284267851
-0.59930003 -0.68032998 -1.1995 4284267851
-0.59564 -0.67844999 -1.1973 4284267851
-0.60108 -0.67844999 -1.1985 4284267851
-0.59564 -0.67794001 -1.1976 4284267851
-0.60246998 -0.67659003 -1.1964 4284267851
-0.60183001 -0.67885 -1.2004 4284267851
-0.59855002 -0.67790997 -1.1987 4284267851
-0.59601003 -0.67787999 -1.1987 4284267851
-0.60285002 -0.67650998 -1.1975 4284267851
-0.60070002 -0.67694002 -1.1982 4284267851
-0.60576999 -0.67644 -1.1986001 4284267851
-0.60323 -0.67641997 -1.1986001 4284267851
-0.60108 -0.67685002 -1.1993999 4284267851
-0.59779 -0.67592001 -1.1977 4284267851
-0.59675997 -0.67772001 -1.2009 4284267851
-0.60576999 -0.67594999 -1.1989 4284267851
-0.60323 -0.67593002 -1.1989 4284267851
-0.60108 -0.67637002 -1.1996 4284267851
-0.59675997 -0.67723 -1.2012 4284267851
-0.60576999 -0.67545998 -1.1992 4284267851
-0.60360998 -0.67589998 -1.1999 4284267851
-0.60145998 -0.67632997 -1.2007 4284267851
-0.59855002 -0.67584997 -1.1999 4284267851
-0.60614997 -0.67532003 -1.2003 4284267851
-0.60360998 -0.6753 -1.2003 4284267851
-0.60145998 -0.67572999 -1.201 4284267851
-0.59816998 -0.67479998 -1.1993999 4284267851
-0.59489 -0.67387003 -1.1977 4284267851
-0.60829997 -0.67427999 -1.1999 4284267851
-0.60576999 -0.67426002 -1.1998 4284267851
-0.60399002 -0.67514998 -1.2014 4284267851
-0.60220999 -0.67602998 -1.2029999 4284267851
-0.60004997 -0.67646003 -1.2038 4284267851
-0.59601003 -0.67461997 -1.2005 4284267851
-0.60869002 -0.67412001 -1.201 4284267851
-0.60576999 -0.67365003 -1.2002 4284267851
-0.60399002 -0.67453998 -1.2018 4284267851
-0.60070002 -0.67360997 -1.2000999 4284267851
-0.59855002 -0.67404002 -1.2009 4284267851
-0.59675997 -0.67492002 -1.2025 4284267851
-0.60869002 -0.67351002 -1.2014 4284267851
-0.60614997 -0.6735 -1.2013 4284267851
-0.60437 -0.67438 -1.2029001 4284267851
-0.59779 -0.67253 -1.1996 4284267851
-0.61022002 -0.67474002 -1.2049 4284267851
-0.60804999 -0.67518002 -1.2057 4284267851
-0.60588998 -0.67561001 -1.2065001 4284267851
-0.60259002 -0.67469001 -1.2048 4284267851
-0.59930003 -0.67376 -1.2032 4284267851
-0.60983002 -0.67370999 -1.2043999 4284267851
-0.60767001 -0.67413998 -1.2052 4284267851
-0.60513002 -0.67413002 -1.2052 4284267851
-0.60220999 -0.67365998 -1.2043 4284267851
-0.59930003 -0.67317998 -1.2035 4284267851
-0.60907 -0.67210001 -1.2032 4284267851
-0.60690999 -0.67253 -1.204 4284267851
-0.60551 -0.67387003 -1.2064 4284267851
-0.60004997 -0.67338002 -1.2055 4284267851
-0.60944998 -0.67181998 -1.2043999 4284267851
-0.60729003 -0.67225999 -1.2052 4284267851
-0.60551 -0.67313999 -1.2068 4284267851
-0.59966999 -0.67220002 -1.2051001 4284267851
-0.60983002 -0.67167997 -1.2056 4284267851
-0.60804999 -0.67255998 -1.2072001 4284267851
-0.60588998 -0.67299998 -1.2079 4284267851
-0.59930003 -0.67115003 -1.2046 4284267851
-0.61022002 -0.67153001 -1.2067 4284267851
-0.60843003 -0.67242002 -1.2083 4284267851
-0.60551 -0.67194998 -1.2075 4284267851
-0.60297 -0.67193002 -1.2074 4284267851
-0.60004997 -0.67145997 -1.2066 4284267851
-0.61022002 -0.67079997 -1.2071 4284267851
-0.60767001 -0.67079002 -1.2071 4284267851
-0.60474998 -0.67031997 -1.2062 4284267851
-0.60259002 -0.67075002 -1.207 4284267851
-0.60043001 -0.67118001 -1.2078 4284267851
-0.61022002 -0.67005998 -1.2075 4284267851
-0.60767001 -0.67005002 -1.2075 4284267851
-0.60399002 -0.66868001 -1.205 4284267851
-0.60183001 -0.66911 -1.2058001 4284267851
-0.60004997 -0.66999 -1.2074 4284267851
-0.61097997 -0.67022002 -1.2095 4284267851
-0.60882002 -0.67065001 -1.2103 4284267851
-0.60627002 -0.67063999 -1.2103 4284267851
-0.60334998 -0.67017001 -1.2095 4284267851
-0.60079998 -0.67014998 -1.2094001 4284267851
-0.61175001 -0.67038 -1.2115999 4284267851
-0.60702997 -0.67079002 -1.2122999 4284267851
-0.60193002 -0.67075998 -1.2122999 4284267851
-0.59722 -0.67115998 -1.2130001 4284267851
-0.59393001 -0.67022997 -1.2113 4284267851
-0.61097997 -0.66877002 -1.2103 4284267851
-0.60843003 -0.66876 -1.2103 4284267851
-0.60627002 -0.66918999 -1.2111 4284267851
-0.60372001 -0.66917002 -1.2111 4284267851
-0.60156 -0.66960001 -1.2118 4284267851
-0.59825999 -0.66868001 -1.2102 4284267851
-0.59609997 -0.66909999 -1.2108999 4284267851
-0.59429997 -0.66996998 -1.2125 4284267851
-0.61175001 -0.66895998 -1.2124 4284267851
-0.60741001 -0.66982001 -1.2139 4284267851
-0.60409999 -0.66891003 -1.2122999 4284267851
-0.60043001 -0.66755003 -1.2098 4284267851
-0.59864002 -0.66842002 -1.2114 4284267851
-0.59609997 -0.66838998 -1.2113 4284267851
-0.59429997 -0.66926003 -1.2129 4284267851
-0.61212999 -0.66861999 -1.2136 4284267851
-0.60664999 -0.66813999 -1.2127 4284267851
-0.60448003 -0.66856998 -1.2135 4284267851
-0.60156 -0.6681 -1.2127 4284267851
-0.59864002 -0.66763002 -1.2118 4284267851
-0.59647 -0.66806 -1.2126 4284267851
-0.59429997 -0.66847003 -1.2133 4284267851
-0.61251003 -0.66828001 -1.2148 4284267851
-0.60957998 -0.66781998 -1.214 4284267851
-0.60741001 -0.66825002 -1.2148 4284267851
-0.60522997 -0.66868001 -1.2156 4284267851
-0.60193002 -0.66776001 -1.2139 4284267851
-0.59938997 -0.66773999 -1.2139 4284267851
-0.59759003 -0.66860998 -1.2154 4284267851
-0.59504002 -0.66858 -1.2154 4284267851
-0.60561001 -0.66839999 -1.2168 4284267851
-0.60306001 -0.66838002 -1.2167 4284267851
-0.59900999 -0.66657001 -1.2135 4284267851
-0.59796 -0.66833001 -1.2167 4284267851
-0.59579003 -0.66874999 -1.2174 4284267851
-0.60816997 -0.66769999 -1.2172 4284267851
-0.60522997 -0.66723001 -1.2164 4284267851
-0.60268003 -0.66720998 -1.2163 4284267851
-0.60013998 -0.66719002 -1.2163 4284267851
-0.59759003 -0.66716999 -1.2162 4284267851
-0.61251003 -0.66593999 -1.2161 4284267851
-0.60561001 -0.66677999 -1.2177 4284267851
-0.60306001 -0.66676003 -1.2176 4284267851
-0.60051 -0.66674 -1.2176 4284267851
