# .PCD v0.7 - Point Cloud Data file format
VERSION 0.7
FIELDS x y z rgb
SIZE 4 4 4 4
TYPE F F F U
COUNT 1 1 1 1
WIDTH 614
HEIGHT 1
VIEWPOINT 0 0 0 1 0 0 0
POINTS 614
DATA ascii
-0.65811998 -0.024682 -1.0867 4294328729
-0.65596002 -0.024684999 -1.0869 4294328729
-0.65328997 -0.024668001 -1.0861 4294328729
-0.65863001 -0.023600999 -1.0876 4294328729
-0.65647 -0.023603 -1.0878 4294328729
-0.65278 -0.02355 -1.0853 4294328729
-0.66367 -0.022338999 -1.0811 4294328729
-0.65709001 -0.02242 -1.0851001 4294328729
-0.65544999 -0.02244 -1.0861 4294328729
-0.65177 -0.022389 -1.0836 4294328729
-0.66460001 -0.021304 -1.0864 4294328729
-0.65657997 -0.021260999 -1.0842 4294328729
-0.65442997 -0.021263 -1.0844001 4294328729
-0.65278 -0.021282 -1.0853 4294328729
-0.65063 -0.021283999 -1.0854 4294328729
-0.66356999 -0.020223999 -1.0847 4294328729
-0.65811998 -0.020262999 -1.0868 4294328729
-0.65494001 -0.020233 -1.0852 4294328729
-0.65328997 -0.020251 -1.0862 4294328729
-0.64962 -0.020205 -1.0836999 4294328729
-0.66417998 -0.019169999 -1.0821 4294328729
-0.66306001 -0.019203 -1.0839 4294328729
-0.66140997 -0.01922 -1.0849 4294328729
-0.65669 -0.019146999 -1.0807 4294328729
-0.65761 -0.019239999 -1.086 4294328729
-0.65647 -0.019273 -1.0878 4294328729
-0.65481001 -0.01929 -1.0888 4294328729
-0.64962 -0.019200001 -1.0836999 4294328729
-0.66417998 -0.018103 -1.0821 4294328729
-0.66202998 -0.018105 -1.0822001 4294328729
-0.66038001 -0.018122001 -1.0832 4294328729
-0.65606999 -0.018126 -1.0834 4294328729
-0.65544999 -0.018170999 -1.0861 4294328729
-0.65380001 -0.018186999 -1.0871 4294328729
-0.65012002 -0.018146001 -1.0846 4294328729
-0.66306001 -0.017134 -1.0839 4294328729
-0.6609 -0.017136 -1.0841 4294328729
-0.65709001 -0.017153 -1.0852 4294328729
-0.65494001 -0.017154999 -1.0853 4294328729
-0.65177 -0.017129 -1.0836999 4294328729
-0.65012002 -0.017145 -1.0846 4294328729
-0.66306001 -0.015919 -1.084 4294328729
-0.65719998 -0.015884999 -1.0816 4294328729
-0.65657997 -0.015924999 -1.0843 4294328729
-0.65442997 -0.015926 -1.0844001 4294328729
-0.65074998 -0.01589 -1.082 4294328729
-0.64911002 -0.015904 -1.0829 4294328729
-0.63212001 -0.015861999 -1.0801001 4294328729
-0.63098001 -0.015888 -1.0819 4294328729
-0.62983 -0.015915001 -1.0836999 4294328729
-0.62818998 -0.015929 -1.0846 4294328729
-0.67341 -0.014752 -1.0789 4294328729
-0.66746002 -0.014769 -1.0801001 4294328729
-0.66417998 -0.014797 -1.0821 4294328729
-0.66202998 -0.014798 -1.0822999 4294328729
-0.65823001 -0.014814 -1.0834 4294328729
-0.65606999 -0.014815 -1.0835 4294328729
-0.65341002 -0.014805 -1.0827 4294328729
-0.65074998 -0.014795 -1.082 4294328729
-0.64911002 -0.014808 -1.0829999 4294328729
-0.64646 -0.014797 -1.0822001 4294328729
-0.64481997 -0.01481 -1.0831 4294328729
-0.64217001 -0.0148 -1.0824 4294328729
-0.63163 -0.014757 -1.0792 4294328729
-0.63147002 -0.014805 -1.0827 4294328729
-0.62818998 -0.01483 -1.0846 4294328729
-0.61703998 -0.014821 -1.084 4294328729
-0.61588001 -0.014846 -1.0857 4294328729
-0.61422998 -0.014858 -1.0865999 4294328729
-0.61162001 -0.014846 -1.0858001 4294328729
-0.67394 -0.013807 -1.0797 4294328729
-0.66367 -0.013827 -1.0813 4294328729
-0.66048002 -0.013807 -1.0797 4294328729
-0.65987003 -0.013842 -1.0824 4294328729
-0.65823001 -0.013854 -1.0834 4294328729
-0.65556002 -0.013845 -1.0826 4294328729
-0.65188003 -0.013813 -1.0802 4294328729
-0.64848 -0.013883 -1.0857 4294328729
-0.64331001 -0.013818 -1.0806 4294328729
-0.64166999 -0.01383 -1.0815001 4294328729
-0.63475001 -0.013822 -1.0809 4294328729
-0.63312 -0.013834 -1.0818 4294328729
-0.63147002 -0.013846 -1.0828 4294328729
-0.62769997 -0.013859 -1.0836999 4294328729
-0.61655998 -0.01385 -1.0831 4294328729
-0.61491001 -0.013862 -1.084 4294328729
-0.61422998 -0.013896 -1.0867 4294328729
-0.61306 -0.013919 -1.0884 4294328729
-0.67499 -0.012686 -1.0814 4294328729
-0.67177999 -0.012668 -1.0799 4294328729
-0.66909999 -0.012659 -1.0792 4294328729
-0.66746002 -0.012671 -1.0802 4294328729
-0.66582 -0.012683 -1.0812 4294328729
-0.66417998 -0.012694 -1.0822001 4294328729
-0.66150999 -0.012686 -1.0814 4294328729
-0.65987003 -0.012697 -1.0824 4294328729
-0.65823001 -0.012709 -1.0834 4294328729
-0.65606999 -0.01271 -1.0835 4294328729
-0.65138 -0.012661 -1.0793 4294328729
-0.64923 -0.012662 -1.0793999 4294328729
-0.64747 -0.012715 -1.0839 4294328729
-0.63953 -0.012688 -1.0816 4294328729
-0.63788998 -0.012699 -1.0826 4294328729
-0.63575 -0.0127 -1.0826 4294328729
-0.63361001 -0.012701 -1.0827 4294328729
-0.63196999 -0.012712 -1.0836 4294328729
-0.62867999 -0.012734 -1.0855 4294328729
-0.61917001 -0.012715 -1.0839 4294328729
-0.61558998 -0.012685 -1.0814 4294328729
-0.61443001 -0.012706 -1.0831 4294328729
-0.61114001 -0.012727 -1.0849 4294328729
-0.66961998 -0.011581 -1.08 4294328729
-0.66746002 -0.011583 -1.0802 4294328729
-0.66582 -0.011593 -1.0812 4294328729
-0.66417998 -0.011604 -1.0822001 4294328729
-0.66150999 -0.011596 -1.0814 4294328729
-0.65935999 -0.011598 -1.0816 4294328729
-0.65669 -0.01159 -1.0808001 4294328729
-0.65606999 -0.011619 -1.0835 4294328729
-0.65341002 -0.011611 -1.0828 4294328729
-0.65025002 -0.011593 -1.0812 4294328729
-0.64758998 -0.011585 -1.0804 4294328729
-0.64494997 -0.011577 -1.0796 4294328729
-0.64230001 -0.011569 -1.0789 4294328729
-0.63902998 -0.011589 -1.0808001 4294328729
-0.63788998 -0.011608 -1.0826 4294328729
-0.63625002 -0.011619 -1.0835 4294328729
-0.63361001 -0.01161 -1.0827 4294328729
-0.62818998 -0.011631 -1.0846 4294328729
-0.62506998 -0.011612 -1.0829999 4294328729
-0.62343001 -0.011622 -1.0839 4294328729
-0.61868 -0.011614 -1.0831 4294328729
-0.61558998 -0.011595 -1.0814 4294328729
-0.61347002 -0.011596 -1.0814 4294328729
-0.61230999 -0.011615 -1.0832 4294328729
-0.60922998 -0.011596 -1.0814 4294328729
-0.67072999 -0.010554 -1.0782 4294328729
-0.66961998 -0.010572 -1.0801001 4294328729
-0.66746002 -0.010573 -1.0802 4294328729
-0.66426998 -0.010558 -1.0786 4294328729
-0.66367 -0.010584 -1.0813 4294328729
-0.66202998 -0.010594 -1.0822999 4294328729
-0.65833002 -0.01057 -1.0799 4294328729
-0.65566999 -0.010563 -1.0791 4294328729
-0.65504998 -0.010589 -1.0818 4294328729
-0.65341002 -0.010599 -1.0828 4294328729
-0.65025002 -0.010583 -1.0812 4294328729
-0.64861 -0.010592 -1.0821 4294328729
-0.64696002 -0.010602 -1.0831 4294328729
-0.64431 -0.010594 -1.0822999 4294328729
-0.64003003 -0.010596 -1.0825 4294328729
-0.63788998 -0.010597 -1.0826 4294328729
-0.63524997 -0.010589 -1.0818 4294328729
-0.63261998 -0.010581 -1.081 4294328729
-0.63098001 -0.01059 -1.0819 4294328729
-0.62933999 -0.010599 -1.0829 4294328729
-0.62769997 -0.010608 -1.0838 4294328729
-0.62555999 -0.010609 -1.0838 4294328729
-0.62343001 -0.010609 -1.0839 4294328729
-0.62032998 -0.010593 -1.0822001 4294328729
-0.6182 -0.010593 -1.0822001 4294328729
-0.61606997 -0.010593 -1.0822999 4294328729
-0.61251003 -0.010568 -1.0797 4294328729
-0.61087 -0.010577 -1.0805 4294328729
-0.61018997 -0.010603 -1.0832 4294328729
-0.66382003 -0.0093043 -1.0742 4294328729
-0.66057003 -0.0093214 -1.0762 4294328729
-0.66150999 -0.0093670003 -1.0815001 4294328729
-0.65935999 -0.0093681002 -1.0816 4294328729
-0.65516001 -0.0093393996 -1.0783 4294328729
-0.65351999 -0.0093478002 -1.0793 4294328729
-0.65239 -0.0093636997 -1.0811 4294328729
-0.64455998 -0.0093131997 -1.0753 4294328729
-0.64292997 -0.0093214 -1.0762 4294328729
-0.64380997 -0.0093671 -1.0815001 4294328729
-0.64166999 -0.0093679 -1.0816 4294328729
-0.63902998 -0.0093611004 -1.0808001 4294328729
-0.63589001 -0.0093467999 -1.0791 4294328729
-0.63426 -0.0093548996 -1.0801001 4294328729
-0.63261998 -0.0093630003 -1.081 4294328729
-0.63098001 -0.0093711 -1.0819 4294328729
-0.62835002 -0.0093641002 -1.0811 4294328729
-0.62671 -0.0093721002 -1.0821 4294328729
-0.62458003 -0.0093724998 -1.0821 4294328729
-0.62294 -0.0093804998 -1.0829999 4294328729
-0.62129998 -0.0093884002 -1.0839 4294328729
-0.61770999 -0.0093660001 -1.0814 4294328729
-0.61461997 -0.0093512004 -1.0796 4294328729
-0.61299002 -0.0093590003 -1.0805 4294328729
-0.61230999 -0.0093818996 -1.0832 4294328729
-0.61066997 -0.0093897004 -1.0841 4294328729
-0.60854 -0.0093898997 -1.0841 4294328729
-0.67072999 -0.0082470998 -1.0782 4294328729
-0.66641998 -0.0082492996 -1.0785 4294328729
-0.66374999 -0.0082438001 -1.0778 4294328729
-0.66211998 -0.0082513997 -1.0788 4294328729
-0.65944999 -0.0082457997 -1.0779999 4294328729
-0.65781999 -0.0082532996 -1.079 4294328729
-0.65566999 -0.0082542002 -1.0791 4294328729
-0.64556998 -0.0082377 -1.077 4294328729
-0.64444 -0.0082516 -1.0788 4294328729
-0.64331001 -0.0082655 -1.0806 4294328729
-0.64166999 -0.0082727997 -1.0816 4294328729
-0.6354 -0.0082475003 -1.0783 4294328729
-0.63524997 -0.0082745999 -1.0818 4294328729
-0.63312 -0.0082751 -1.0819 4294328729
-0.63049001 -0.0082689999 -1.0811 4294328729
-0.62687999 -0.0082494998 -1.0785 4294328729
-0.62621999 -0.0082697999 -1.0812 4294328729
-0.62458003 -0.0082769003 -1.0821 4294328729
-0.62098998 -0.0082572 -1.0795 4294328729
-0.61887002 -0.0082574999 -1.0796 4294328729
-0.6182 -0.0082778996 -1.0822001 4294328729
-0.61558998 -0.0082713999 -1.0814 4294328729
-0.61347002 -0.0082716001 -1.0814 4294328729
-0.61183 -0.0082785003 -1.0822999 4294328729
-0.61018997 -0.0082854005 -1.0832 4294328729
-0.67341 -0.0072973999 -1.0789 4294328729
-0.67126 -0.0072984002 -1.0791 4294328729
-0.66641998 -0.0072945999 -1.0785 4294328729
-0.66530001 -0.0073071001 -1.0804 4294328729
-0.66367 -0.0073138 -1.0814 4294328729
-0.66048002 -0.0073031001 -1.0798 4294328729
-0.6573 -0.0072923 -1.0782 4294328729
-0.64657998 -0.0072960001 -1.0786999 4294328729
-0.64494997 -0.0073024002 -1.0797 4294328729
-0.64179999 -0.0072913999 -1.0779999 4294328729
-0.63953 -0.0073159002 -1.0817 4294328729
-0.63839 -0.0073281 -1.0835 4294328729
-0.63575 -0.0073227999 -1.0827 4294328729
-0.63312 -0.0073174001 -1.0819 4294328729
-0.63098001 -0.0073178001 -1.082 4294328729
-0.62884998 -0.0073182001 -1.082 4294328729
-0.62524003 -0.0073008998 -1.0795 4294328729
-0.62360001 -0.0073072002 -1.0804 4294328729
-0.62197 -0.0073134 -1.0813 4294328729
-0.62129998 -0.0073314002 -1.084 4294328729
-0.6182 -0.0073198001 -1.0822001 4294328729
-0.61558998 -0.0073140999 -1.0814 4294328729
-0.61202002 -0.0072964998 -1.0788 4294328729
-0.61183 -0.0073203999 -1.0822999 4294328729
-0.61066997 -0.0073324 -1.0841 4294328729
-0.60901999 -0.0073384 -1.085 4294328729
-0.67229998 -0.0061679999 -1.0808001 4294328729
-0.66806 -0.0061494 -1.0775 4294328729
-0.66486001 -0.0061404002 -1.076 4294328729
-0.66374999 -0.006151 -1.0778 4294328729
-0.66159999 -0.0061516999 -1.0779001 4294328729
-0.65996999 -0.0061573 -1.0789 4294328729
-0.65575999 -0.0061384998 -1.0756 4294328729
-0.64709002 -0.0061611999 -1.0796 4294328729
-0.64494997 -0.0061617 -1.0797 4294328729
-0.64130002 -0.0061474 -1.0772001 4294328729
-0.63753003 -0.0061532999 -1.0782 4294328729
-0.63739002 -0.0061734999 -1.0818 4294328729
-0.63426 -0.0061639999 -1.0801001 4294328729
-0.63112998 -0.0061544999 -1.0784 4294328729
-0.62949997 -0.0061598001 -1.0793999 4294328729
-0.62786001 -0.0061650998 -1.0803 4294328729
-0.62524003 -0.0061603999 -1.0795 4294328729
-0.62312001 -0.0061607002 -1.0795 4294328729
-0.62050003 -0.0061559998 -1.0786999 4294328729
-0.61887002 -0.0061611999 -1.0796 4294328729
-0.61723 -0.0061663999 -1.0805 4294328729
-0.61202002 -0.0061567002 -1.0788 4294328729
-0.60874999 -0.0061669 -1.0806 4294328729
-0.67177999 -0.0050837998 -1.0799 4294328729
-0.67014003 -0.0050885002 -1.0809 4294328729
-0.66538 -0.0050690002 -1.0768 4294328729
-0.66323 -0.0050697001 -1.077 4294328729
-0.66159999 -0.0050742999 -1.0779001 4294328729
-0.65894002 -0.0050709001 -1.0772001 4294328729
-0.65525001 -0.0050593 -1.0748 4294328729
-0.64494997 -0.0050825998 -1.0797 4294328729
-0.64280999 -0.0050829998 -1.0798 4294328729
-0.64067 -0.0050833998 -1.0799 4294328729
-0.63652998 -0.0050674998 -1.0765001 4294328729
-0.6354 -0.005076 -1.0783 4294328729
-0.63375998 -0.0050804 -1.0792 4294328729
-0.63063997 -0.0050725001 -1.0776 4294328729
-0.62752002 -0.0050646001 -1.0759 4294328729
-0.62687999 -0.0050772 -1.0785 4294328729
-0.62572998 -0.0050856001 -1.0803 4294328729
-0.62409002 -0.0050900001 -1.0813 4294328729
-0.62197 -0.0050901999 -1.0813 4294328729
-0.61838001 -0.005078 -1.0786999 4294328729
-0.61723 -0.0050864001 -1.0805 4294328729
-0.61413997 -0.0050782999 -1.0788 4294328729
-0.61299002 -0.0050867 -1.0806 4294328729
-0.60663003 -0.0050869002 -1.0806 4294328729
-0.67132002 -0.0039599999 -1.0755 4294328729
-0.67021 -0.0039667999 -1.0774 4294328729
-0.66753 -0.0039642002 -1.0767 4294328729
-0.66382003 -0.0039553 -1.0743001 4294328729
-0.66271001 -0.0039621 -1.0761 4294328729
-0.66108 -0.0039657 -1.0771 4294328729
-0.65790999 -0.0039598998 -1.0755 4294328729
-0.63815999 -0.0039599999 -1.0755 4294328729
-0.63753003 -0.0039698998 -1.0782 4294328729
-0.63589001 -0.0039733001 -1.0792 4294328729
-0.63375998 -0.0039736 -1.0792 4294328729
-0.63112998 -0.0039706999 -1.0784 4294328729
-0.62900001 -0.0039709001 -1.0785 4294328729
-0.62687999 -0.0039710999 -1.0785 4294328729
-0.62327999 -0.0039617 -1.076 4294328729
-0.62164998 -0.0039650002 -1.0769 4294328729
-0.62001002 -0.0039683999 -1.0778 4294328729
-0.61578 -0.0039686998 -1.0779001 4294328729
-0.61220998 -0.0039591002 -1.0753 4294328729
-0.67079002 -0.0028715001 -1.0747 4294328729
-0.66812003 -0.0028697001 -1.074 4294328729
-0.66492999 -0.0028655 -1.0724 4294328729
-0.66329998 -0.0028681001 -1.0734 4294328729
-0.66219997 -0.002873 -1.0753 4294328729
-0.66004997 -0.0028734 -1.0754 4294328729
-0.64556998 -0.0028778 -1.077 4294328729
-0.64292997 -0.0028756999 -1.0762 4294328729
-0.63815999 -0.0028738 -1.0755 4294328729
-0.63753003 -0.0028810001 -1.0782 4294328729
-0.63589001 -0.0028835 -1.0792 4294328729
-0.63277 -0.0028790999 -1.0775 4294328729
-0.63063997 -0.0028792 -1.0776 4294328729
-0.62801999 -0.0028770999 -1.0768 4294328729
-0.62737 -0.0028842001 -1.0793999 4294328729
-0.62475002 -0.0028820001 -1.0786 4294328729
-0.62164998 -0.0028774999 -1.0769 4294328729
-0.61953002 -0.0028776 -1.0769 4294328729
-0.61789 -0.00288 -1.0779001 4294328729
-0.60991001 -0.0028826001 -1.0788 4294328729
-0.60615999 -0.0028851 -1.0797 4294328729
-0.66701001 -0.0017993 -1.0757999 4294328729
-0.66434002 -0.0017981 -1.0750999 4294328729
-0.66167998 -0.0017968999 -1.0743999 4294328729
-0.64506 -0.0017998 -1.0762 4294328729
-0.64393997 -0.0018029 -1.0779999 4294328729
-0.64230001 -0.0018045 -1.0789 4294328729
-0.63966 -0.0018032 -1.0781 4294328729
-0.63703001 -0.0018019 -1.0774 4294328729
-0.63489997 -0.001802 -1.0774 4294328729
-0.63277 -0.0018021 -1.0775 4294328729
-0.63063997 -0.0018022 -1.0776 4294328729
-0.62752002 -0.0017994 -1.0759 4294328729
-0.62589002 -0.0018009 -1.0768 4294328729
-0.62426001 -0.0018025 -1.0777 4294328729
-0.62263 -0.001804 -1.0786999 4294328729
-0.62001002 -0.0018026 -1.0778 4294328729
-0.61741 -0.0018012 -1.077 4294328729
-0.61528999 -0.0018013 -1.077 4294328729
-0.61413997 -0.0018043 -1.0788 4294328729
-0.61251003 -0.0018058 -1.0797 4294328729
-0.67072999 -0.00084016001 -1.0783 4294328729
-0.66434002 -0.00083772 -1.0750999 4294328729
-0.66167998 -0.00083715998 -1.0743999 4294328729
-0.64985001 -0.00083903997 -1.0768 4294328729
-0.64393997 -0.00083993998 -1.0779999 4294328729
-0.64230001 -0.00084067998 -1.0789 4294328729
-0.64016998 -0.00084075 -1.079 4294328729
-0.63753003 -0.00084013998 -1.0782 4294328729
-0.6354 -0.00084019999 -1.0783 4294328729
-0.63375998 -0.00084092998 -1.0792 4294328729
-0.63063997 -0.00083963003 -1.0776 4294328729
-0.62851 -0.00083967001 -1.0776 4294328729
-0.62589002 -0.00083903997 -1.0768 4294328729
-0.62377 -0.00083908002 -1.0769 4294328729
-0.62213999 -0.00083978998 -1.0778 4294328729
-0.62098998 -0.00084118999 -1.0796 4294328729
-0.61789 -0.00083986 -1.0779001 4294328729
-0.61625999 -0.00084056001 -1.0788 4294328729
-0.61461997 -0.00084127003 -1.0797 4294328729
-0.61202002 -0.0008406 -1.0788 4294328729
-0.66974998 0.00032891001 -1.073 4294328729
-0.66812003 0.00032920999 -1.074 4294328729
-0.66701001 0.00032978001 -1.0757999 4294328729
-0.66434002 0.00032955999 -1.0750999 4294328729
-0.66115999 0.00032908001 -1.0735 4294328729
-0.64078999 0.00032992999 -1.0763 4294328729
-0.63815999 0.00032969 -1.0756 4294328729
-0.63703001 0.00033024 -1.0774 4294328729
-0.63440001 0.00033000001 -1.0766 4294328729
-0.63226998 0.00033002 -1.0766 4294328729
-0.62866002 0.00032923999 -1.0741 4294328729
-0.62752002 0.00032979 -1.0759 4294328729
-0.62638003 0.00033034 -1.0777 4294328729
-0.62426001 0.00033036 -1.0777 4294328729
-0.62115997 0.00032984 -1.076 4294328729
-0.61904001 0.00032985001 -1.0761 4294328729
-0.61838001 0.00033067001 -1.0786999 4294328729
-0.61675 0.00033094999 -1.0796 4294328729
-0.61510998 0.00033122001 -1.0806 4294328729
-0.67027003 0.0013971 -1.0738 4294328729
-0.66812003 0.0013973 -1.074 4294328729
-0.66649002 0.0013986001 -1.075 4294328729
-0.66329998 0.0013965 -1.0734 4294328729
-0.66167998 0.0013978 -1.0743999 4294328729
-0.64241999 0.0013990999 -1.0754 4294328729
-0.64029002 0.0013991999 -1.0755 4294328729
-0.63716 0.0013971 -1.0738 4294328729
-0.63502997 0.0013972 -1.0739 4294328729
-0.63340002 0.0013984001 -1.0748 4294328729
-0.63226998 0.0014007 -1.0766 4294328729
-0.63063997 0.001402 -1.0776 4294328729
-0.62752002 0.0013997999 -1.0759 4294328729
-0.62589002 0.001401 -1.0768 4294328729
-0.62426001 0.0014022 -1.0777 4294328729
-0.62263 0.0014034 -1.0786999 4294328729
-0.61953002 0.0014011 -1.077 4294328729
-0.61741 0.0014012 -1.077 4294328729
-0.61578 0.0014024 -1.0779001 4294328729
-0.61413997 0.0014036 -1.0788 4294328729
-0.66812003 0.0023634001 -1.074 4294328729
-0.66649002 0.0023656001 -1.075 4294328729
-0.66279 0.0023602 -1.0726 4294328729
-0.64253002 0.0023586999 -1.0718 4294328729
-0.64029002 0.0023666001 -1.0755 4294328729
-0.63665003 0.0023610999 -1.073 4294328729
-0.63552999 0.0023651 -1.0748 4294328729
-0.6329 0.0023633 -1.074 4294328729
-0.63177001 0.0023673 -1.0757999 4294328729
-0.62914997 0.0023655 -1.075 4294328729
-0.61969 0.0023620999 -1.0734 4294328729
-0.61805999 0.0023641 -1.0743001 4294328729
-0.61594999 0.0023642001 -1.0743999 4294328729
-0.67027003 0.0035776 -1.0738 4294328729
-0.66759998 0.0035752 -1.0731 4294328729
-0.66544998 0.0035757001 -1.0733 4294328729
-0.66227001 0.0035705001 -1.0717 4294328729
-0.64466 0.0035705999 -1.0717 4294328729
-0.64304 0.0035738 -1.0727 4294328729
-0.64140999 0.003577 -1.0737 4294328729
-0.64029002 0.003583 -1.0755 4294328729
-0.63615 0.0035718 -1.0721 4294328729
-0.63603002 0.0035834999 -1.0756 4294328729
-0.63340002 0.0035808999 -1.0748 4294328729
-0.63077998 0.0035782 -1.074 4294328729
-0.62652999 0.0035786 -1.0741 4294328729
-0.62181002 0.0035761001 -1.0734 4294328729
-0.61969 0.0035762 -1.0734 4294328729
-0.61855 0.0035820999 -1.0752 4294328729
-0.61644 0.0035822999 -1.0752 4294328729
-0.61431998 0.0035824 -1.0753 4294328729
-0.66974998 0.0047036 -1.073 4294328729
-0.66759998 0.0047042998 -1.0731 4294328729
-0.66441 0.0046974001 -1.0716 4294328729
-0.66227001 0.0046979999 -1.0717 4294328729
-0.66012001 0.0046986002 -1.0718 4294328729
-0.64679003 0.0046978001 -1.0716 4294328729
-0.64415997 0.0046943999 -1.0709 4294328729
-0.64304 0.0047024 -1.0727 4294328729
-0.64191997 0.0047104 -1.0745 4294328729
-0.63979 0.0047106999 -1.0746 4294328729
-0.63716 0.0047073001 -1.0738 4294328729
-0.63353002 0.0046962001 -1.0713 4294328729
-0.6329 0.0047078999 -1.074 4294328729
-0.62554997 0.0047010998 -1.0724 4294328729
-0.62131 0.0047014998 -1.0725 4294328729
-0.62067002 0.0047132 -1.0752 4294328729
-0.61953002 0.0047209999 -1.0769 4294328729
-0.61431998 0.0047137002 -1.0753 4294328729
-0.67132002 0.0056526 -1.0755 4294328729
-0.66759998 0.0056400001 -1.0731 4294328729
-0.66492999 0.0056361998 -1.0724 4294328729
-0.66175002 0.0056278999 -1.0707999 4294328729
-0.65908998 0.0056241001 -1.0700999 4294328729
-0.65105999 0.0056310999 -1.0714 4294328729
-0.64943999 0.0056361998 -1.0724 4294328729
-0.64780998 0.0056412001 -1.0734 4294328729
-0.64516997 0.0056372001 -1.0726 4294328729
-0.64253002 0.0056332001 -1.0718 4294328729
-0.64091003 0.0056381999 -1.0728 4294328729
-0.63928002 0.0056431 -1.0737 4294328729
-0.63716 0.0056436001 -1.0738 4294328729
-0.63453001 0.0056393999 -1.073 4294328729
-0.6329 0.0056443 -1.074 4294328729
-0.62131 0.0056367 -1.0725 4294328729
-0.62213999 0.0056643998 -1.0778 4294328729
-0.61904001 0.0056554 -1.0761 4294328729
-0.67137003 0.0067272 -1.072 4294328729
-0.66921997 0.0067281001 -1.0721 4294328729
-0.66654998 0.0067237001 -1.0714 4294328729
-0.66389 0.0067191999 -1.0707 4294328729
-0.66123003 0.0067146998 -1.0700001 4294328729
-0.65908998 0.0067154998 -1.0700999 4294328729
-0.64995003 0.0067353002 -1.0733 4294328729
-0.64679003 0.0067250999 -1.0716 4294328729
-0.64365 0.0067149 -1.0700001 4294328729
-0.64253002 0.0067262999 -1.0718 4294328729
-0.64041001 0.0067268 -1.0719 4294328729
-0.63778001 0.0067218998 -1.0711 4294328729
-0.63515002 0.0067170002 -1.0703 4294328729
-0.63402998 0.0067282999 -1.0721 4294328729
-0.63239998 0.0067341998 -1.0731 4294328729
-0.62230003 0.0067413999 -1.0742 4294328729
-0.66764998 0.0077505 -1.0696 4294328729
-0.66551 0.0077514998 -1.0697 4294328729
-0.66337001 0.0077525 -1.0698 4294328729
-0.65967 0.0077348999 -1.0674 4294328729
-0.65856999 0.0077482001 -1.0692 4294328729
-0.64995003 0.0077772001 -1.0732 4294328729
-0.64627999 0.0077593001 -1.0707999 4294328729
-0.64415997 0.0077599999 -1.0709 4294328729
-0.64253002 0.0077669001 -1.0718 4294328729
-0.64091003 0.0077737002 -1.0728 4294328729
-0.63979 0.0077868998 -1.0746 4294328729
-0.63615 0.0077686999 -1.0721 4294328729
-0.63402998 0.0077692 -1.0721 4294328729
-0.6329 0.0077823 -1.0739 4294328729
-0.66659999 0.0086992001 -1.0678 4294328729
-0.66394001 0.0086933998 -1.0671 4294328729
-0.66285002 0.0087083997 -1.069 4294328729
-0.66018999 0.0087024998 -1.0683 4294328729
-0.64943999 0.0087361 -1.0724 4294328729
-0.64780998 0.0087440005 -1.0733 4294328729
-0.64466 0.0087307002 -1.0717 4294328729
-0.64304 0.0087385001 -1.0727 4294328729
-0.64041001 0.0087321997 -1.0719 4294328729
-0.63928002 0.0087470002 -1.0737 4294328729
-0.63564998 0.0087265 -1.0712 4294328729
-0.63453001 0.0087412 -1.073 4294328729
-0.6329 0.0087487996 -1.0739 4294328729
-0.63177001 0.0087634996 -1.0757 4294328729
-0.66764998 0.0099494001 -1.0695 4294328729
-0.66551 0.0099507002 -1.0697 4294328729
-0.66337001 0.0099520003 -1.0698 4294328729
-0.66018999 0.0099373003 -1.0682 4294328729
-0.64516997 0.0099775 -1.0726 4294328729
-0.64354998 0.0099863997 -1.0735 4294328729
-0.64041001 0.0099711996 -1.0719 4294328729
-0.63677001 0.0099478001 -1.0694 4294328729
-0.63564998 0.0099646002 -1.0712 4294328729
-0.63402998 0.0099734003 -1.0721 4294328729
-0.66764998 0.011119 -1.0695 4294328729
-0.66602999 0.011129 -1.0705 4294328729
-0.66389 0.01113 -1.0707 4294328729
-0.66227001 0.011141 -1.0716 4294328729
-0.64739001 0.011112 -1.0689 4294328729
-0.64526999 0.011113 -1.069 4294328729
-0.64415997 0.011132 -1.0707999 4294328729
-0.64203 0.011133 -1.0709 4294328729
-0.63940001 0.011125 -1.0700999 4294328729
-0.63677001 0.011117 -1.0694 4294328729
-0.63564998 0.011136 -1.0712 4294328729
-0.66926998 0.012069 -1.0685 4294328729
-0.66554999 0.012042 -1.0661 4294328729
-0.66342002 0.012043 -1.0662 4294328729
-0.66180003 0.012054 -1.0671999 4294328729
-0.66018999 0.012065 -1.0682 4294328729
-0.65003997 0.012082 -1.0697 4294328729
-0.64841998 0.012093 -1.0706 4294328729
-0.64627999 0.012094 -1.0707 4294328729
-0.64516997 0.012114 -1.0725 4294328729
-0.64152002 0.012086 -1.0700001 4294328729
-0.63889003 0.012077 -1.0693001 4294328729
-0.63677001 0.012078 -1.0694 4294328729
-0.63564998 0.012099 -1.0712 4294328729
-0.66554999 0.013056 -1.0661 4294328729
-0.66342002 0.013058 -1.0662 4294328729
-0.66180003 0.01307 -1.0671999 4294328729
-0.65333998 0.013033 -1.0642 4294328729
-0.65377998 0.013087 -1.0686001 4294328729
-0.65165001 0.013088 -1.0687 4294328729
-0.64951998 0.013089 -1.0688 4294328729
-0.64841998 0.013112 -1.0706 4294328729
-0.64476001 0.013081 -1.0681 4294328729
-0.64212 0.013072 -1.0674 4294328729
-0.63999999 0.013073 -1.0675 4294328729
-0.63839 0.013085 -1.0684 4294328729
-0.63677001 0.013096 -1.0693001 4294328729
-0.66926998 0.014122 -1.0685 4294328729
-0.66712999 0.014124 -1.0686001 4294328729
-0.66342002 0.014092 -1.0662 4294328729
-0.65539998 0.01411 -1.0676 4294328729
-0.65327001 0.014111 -1.0677 4294328729
-0.65063 0.014101 -1.067 4294328729
-0.64696002 0.014069 -1.0645 4294328729
-0.64636999 0.014104 -1.0671999 4294328729
-0.64578003 0.014139 -1.0698 4294328729
-0.64314002 0.014129 -1.0691 4294328729
-0.63999999 0.014108 -1.0674 4294328729
-0.63839 0.01412 -1.0684 4294328729
-0.63726997 0.014144 -1.0702 4294328729
-0.63615 0.014168 -1.072 4294328729
-0.63353002 0.014157 -1.0712 4294328729
-0.66712999 0.015178 -1.0686001 4294328729
-0.66232002 0.01517 -1.068 4294328729
-0.65482002 0.015201 -1.0703 4294328729
-0.65113997 0.015166 -1.0678 4294328729
-0.65003997 0.015192 -1.0696 4294328729
-0.64586002 0.015145 -1.0663 4294328729
-0.64323002 0.015134 -1.0655 4294328729
-0.64212 0.015159 -1.0673 4294328729
-0.64102 0.015185 -1.0691 4294328729
-0.63839 0.015174 -1.0684 4294328729
-0.63626999 0.015175 -1.0684 4294328729
-0.65915 0.016248999 -1.0664999 4294328729
-0.65171999 0.016228 -1.0651 4294328729
-0.64960003 0.01623 -1.0652 4294328729
-0.64747 0.016231 -1.0653 4294328729
-0.64484 0.01622 -1.0646 4294328729
-0.64323002 0.016233999 -1.0655 4294328729
-0.64161998 0.016248999 -1.0664999 4294328729
-0.63999999 0.016263001 -1.0674 4294328729
-0.63788003 0.016264999 -1.0675 4294328729
-0.63626999 0.016279001 -1.0684 4294328729
-0.63264 0.016240001 -1.0659 4294328729
-0.65972 0.017471001 -1.0637 4294328729
-0.65758997 0.017472999 -1.0639 4294328729
-0.65377998 0.017549001 -1.0685 4294328729
-0.64908999 0.017480001 -1.0642999 4294328729
-0.64747 0.017495999 -1.0653 4294328729
-0.64687997 0.01754 -1.068 4294328729
-0.64476001 0.017542001 -1.0681 4294328729
-0.63738 0.017518001 -1.0666 4294328729
-0.63677001 0.017562 -1.0693001 4294328729
-0.64534998 0.018482 -1.0654 4294328729
