# .PCD v0.7 - Point Cloud Data file format
VERSION 0.7
FIELDS x y z rgb
SIZE 4 4 4 4
TYPE F F F U
COUNT 1 1 1 1
WIDTH 102
HEIGHT 1
VIEWPOINT 0 0 0 1 0 0 0
POINTS 102
DATA ascii
-0.75105 -0.3653 -1.2262 4278415247
-0.74756998 -0.36364999 -1.2251 4278415247
-0.74853998 -0.36026999 -1.2183 4278415247
-0.74557 -0.3601 -1.2178 4278415247
-0.74360001 -0.36041999 -1.2187999 4278415247
-0.74853998 -0.35903999 -1.2187001 4278415247
-0.74506998 -0.35861999 -1.2173001 4278415247
-0.74260002 -0.35870001 -1.2175 4278415247
-0.74804002 -0.35756001 -1.2182 4278415247
-0.74307001 -0.35641 -1.2143 4278415247
-0.74160999 -0.35698 -1.2162 4278415247
-0.74453002 -0.35468 -1.2128 4278415247
-0.74207997 -0.35475999 -1.2130001 4278415247
-0.74309999 -0.35653001 -1.2191 4278415247
-0.74258 -0.35383999 -1.2142 4278415247
-0.74111003 -0.35440001 -1.2161 4278415247
-0.74457002 -0.35357001 -1.2179 4278415247
-0.73961997 -0.35242999 -1.2139 4278415247
-0.74553001 -0.35148999 -1.2155 4278415247
-0.74058002 -0.35036001 -1.2115999 4278415247
-0.73913002 -0.35091001 -1.2135 4278415247
-0.74111003 -0.35066 -1.2172 4278415247
-0.74309999 -0.35042 -1.2209001 4278415247
-0.74457002 -0.34869999 -1.2193 4278415247
-0.74260002 -0.34900999 -1.2204 4278415247
-0.74260002 -0.34784999 -1.2207 4278415247
-0.74509001 -0.34400001 -1.2263 4278415247
-0.74607003 -0.34200001 -1.2239 4278415247
-0.74409997 -0.34231001 -1.225 4278415247
-0.74011999 -0.33921999 -1.2186 4278415247
-0.74062002 -0.33822 -1.2198 4278415247
-0.73914999 -0.33875 -1.2217 4278415247
-0.74207997 -0.33645001 -1.2182 4278415247
-0.73812997 -0.33583 -1.2158999 4278415247
-0.73863 -0.33484 -1.2171 4278415247
-0.73765999 -0.33559999 -1.2199 4278415247
-0.73812997 -0.33339 -1.2165999 4278415247
-0.73618001 -0.33368999 -1.2177 4278415247
-0.73909003 -0.33144999 -1.2142 4278415247
-0.73565 -0.33105999 -1.2128 4278415247
-0.73816001 -0.33340999 -1.2214 4278415247
-0.74011999 -0.33193001 -1.2206 4278415247
-0.73716998 -0.33177 -1.22 4278415247
-0.73663998 -0.32910001 -1.2151 4278415247
-0.73220998 -0.32826 -1.212 4278415247
-0.74058002 -0.32846999 -1.2177 4278415247
-0.73514998 -0.32718 -1.2129 4278415247
-0.73469001 -0.32815 -1.2165 4278415247
-0.73663998 -0.32668 -1.2157 4278415247
-0.73418999 -0.32674 -1.216 4278415247
-0.73614001 -0.32530001 -1.2151999 4278415247
-0.73518997 -0.32604 -1.2180001 4278415247
-0.73808998 -0.32379001 -1.2145 4278415247
-0.73316002 -0.32273999 -1.2105 4278415247
-0.73618001 -0.32526001 -1.22 4278415247
-0.73365998 -0.32172 -1.2117 4278415247
-0.73271 -0.32245001 -1.2144001 4278415247
-0.73465002 -0.32095 -1.2137001 4278415247
-0.73567998 -0.32256001 -1.2198 4278415247
-0.73619998 -0.32396001 -1.2251 4278415247
-0.73708999 -0.31966999 -1.2138 4278415247
-0.73465002 -0.31973001 -1.214 4278415247
-0.73567998 -0.32133999 -1.2201 4278415247
-0.73514998 -0.31876001 -1.2151 4278415247
-0.73320001 -0.31904 -1.2162 4278415247
-0.73416001 -0.31714001 -1.2138 4278415247
-0.73022997 -0.31654 -1.2115 4278415247
-0.73422003 -0.31946 -1.2227 4278415247
-0.73859 -0.31674001 -1.2172 4278415247
-0.73514998 -0.31637001 -1.2158 4278415247
-0.73271 -0.31643 -1.216 4278415247
-0.73565 -0.31536999 -1.2169 4278415247
-0.73320001 -0.31544 -1.2172 4278415247
-0.73316002 -0.31303999 -1.2131 4278415247
-0.73073 -0.31310001 -1.2133 4278415247
-0.73470998 -0.31597999 -1.2244999 4278415247
-0.73460001 -0.31128001 -1.2115 4278415247
-0.73216999 -0.31134999 -1.2117 4278415247
-0.73865002 -0.31529999 -1.2271 4278415247
-0.73514998 -0.31025001 -1.2173001 4278415247
-0.73418999 -0.31095001 -1.2201 4278415247
-0.73559999 -0.30809 -1.2141 4278415247
-0.73266 -0.30794001 -1.2135 4278415247
-0.73320001 -0.30928001 -1.2187001 4278415247
-0.73266 -0.30667999 -1.2138 4278415247
-0.73073 -0.30695 -1.2149 4278415247
-0.73365998 -0.30590999 -1.2158 4278415247
-0.73171997 -0.30618 -1.2168 4278415247
-0.73509997 -0.30425999 -1.2141 4278415247
-0.73316002 -0.30452999 -1.2151999 4278415247
-0.73266 -0.30311999 -1.2147 4278415247
-0.73369998 -0.30465001 -1.2208 4278415247
-0.73416001 -0.30252999 -1.2175 4278415247
-0.73460001 -0.30041 -1.2142 4278415247
-0.73067999 -0.29984 -1.2119 4278415247
-0.73460001 -0.29677999 -1.2151 4278415247
-0.73316002 -0.29479 -1.2176 4278415247
-0.73559999 -0.29350001 -1.2177 4278415247
-0.73266 -0.29212001 -1.2174 4278415247
-0.73171997 -0.29279 -1.2201 4278415247
-0.73365998 -0.28773001 -1.2201999 4278415247
-0.73614001 -0.28628999 -1.225 4278415247
