# .PCD v0.7 - Point Cloud Data file format
VERSION 0.7
FIELDS x y z rgb
SIZE 4 4 4 4
TYPE F F F U
COUNT 1 1 1 1
WIDTH 108
HEIGHT 1
VIEWPOINT 0 0 0 1 0 0 0
POINTS 108
DATA ascii
-0.1121 -0.68282002 -1.1934 4286404769
-0.10997 -0.68312001 -1.1956 4286404769
-0.11209 -0.68120998 -1.1932 4286404769
-0.11645 -0.68273997 -1.1969 4286404769
-0.10996 -0.68178999 -1.1952 4286404769
-0.10999 -0.68286997 -1.1981 4286404769
-0.10782 -0.68238997 -1.1971999 4286404769
-0.10567 -0.68289 -1.1981 4286404769
-0.11645 -0.68193001 -1.1973 4286404769
-0.10998 -0.68198001 -1.1974 4286404769
-0.10567 -0.68248999 -1.1983 4286404769
-0.1208 -0.68247998 -1.1992 4286404769
-0.11645 -0.68153 -1.1976 4286404769
-0.10996 -0.68058002 -1.1959 4286404769
-0.10782 -0.68158001 -1.1977 4286404769
-0.10567 -0.68159002 -1.1977 4286404769
-0.10351 -0.68159997 -1.1977 4286404769
-0.1143 -0.68114001 -1.1978 4286404769
-0.10999 -0.68166 -1.1987 4286404769
-0.10783 -0.68167001 -1.1988 4286404769
-0.10567 -0.68119001 -1.1979001 4286404769
-0.1035 -0.6807 -1.197 4286404769
-0.11861 -0.68068999 -1.198 4286404769
-0.11645 -0.68071002 -1.198 4286404769
-0.10999 -0.68124002 -1.199 4286404769
-0.11866 -0.68175 -1.2009 4286404769
-0.11648 -0.68127 -1.2 4286404769
-0.10782 -0.68033999 -1.1984 4286404769
-0.11868 -0.68177003 -1.202 4286404769
-0.11648 -0.68080002 -1.2003 4286404769
-0.10999 -0.68035001 -1.1995 4286404769
-0.10782 -0.67936999 -1.1978 4286404769
-0.10566 -0.67938 -1.1978 4286404769
-0.10351 -0.67988002 -1.1987 4286404769
-0.11648 -0.68031001 -1.2006 4286404769
-0.11432 -0.68032998 -1.2006 4286404769
-0.10996 -0.67838001 -1.1971999 4286404769
-0.10782 -0.67938 -1.1989 4286404769
-0.10567 -0.67988002 -1.1998 4286404769
-0.12301 -0.68072999 -1.2025 4286404769
-0.1208 -0.67976999 -1.2007999 4286404769
-0.11864 -0.67978001 -1.2007999 4286404769
-0.11216 -0.67983001 -1.2009 4286404769
-0.11 -0.67984003 -1.2009 4286404769
-0.10567 -0.67936999 -1.2000999 4286404769
-0.10352 -0.67938 -1.2000999 4286404769
-0.10136 -0.67938 -1.2000999 4286404769
-0.12299 -0.67971998 -1.2019 4286404769
-0.12077 -0.67826998 -1.1993001 4286404769
-0.11434 -0.67979997 -1.202 4286404769
-0.11218 -0.67980999 -1.2021 4286404769
-0.11002 -0.68031001 -1.2029999 4286404769
-0.10785 -0.67983001 -1.2021 4286404769
-0.10568 -0.67935002 -1.2012 4286404769
-0.10352 -0.67886001 -1.2004 4286404769
-0.11653 -0.68022001 -1.2041 4286404769
-0.11435 -0.67975003 -1.2032 4286404769
-0.11216 -0.67878002 -1.2015001 4286404769
-0.10999 -0.67830002 -1.2006 4286404769
-0.10783 -0.67830998 -1.2007 4286404769
-0.10568 -0.67881 -1.2016 4286404769
-0.10352 -0.67831999 -1.2007 4286404769
-0.10135 -0.67685002 -1.1981 4286404769
-0.12299 -0.67864001 -1.2025 4286404769
-0.11861 -0.67720997 -1.2 4286404769
-0.11655 -0.68017 -1.2052 4286404769
-0.10999 -0.67776 -1.201 4286404769
-0.10784 -0.67826003 -1.2018 4286404769
-0.10568 -0.67826998 -1.2019 4286404769
-0.10136 -0.67778999 -1.201 4286404769
-0.11864 -0.67769998 -1.202 4286404769
-0.11218 -0.67824 -1.2029999 4286404769
-0.11 -0.67776 -1.2021 4286404769
-0.10784 -0.67777002 -1.2021 4286404769
-0.10353 -0.67826998 -1.2029999 4286404769
-0.11219 -0.67824 -1.2041 4286404769
-0.11001 -0.67776 -1.2032 4286404769
-0.10784 -0.67728001 -1.2024 4286404769
-0.10567 -0.67680001 -1.2015001 4286404769
-0.10352 -0.67729002 -1.2024 4286404769
-0.11219 -0.67764002 -1.2043999 4286404769
-0.11002 -0.67764997 -1.2045 4286404769
-0.10786 -0.67765999 -1.2045 4286404769
-0.10568 -0.67668998 -1.2027 4286404769
-0.10353 -0.67719001 -1.2036 4286404769
-0.1122 -0.67751998 -1.2057 4286404769
-0.11002 -0.67703998 -1.2048 4286404769
-0.10786 -0.67704999 -1.2048 4286404769
-0.10569 -0.67657 -1.204 4286404769
-0.10353 -0.67658001 -1.204 4286404769
-0.1122 -0.67690998 -1.206 4286404769
-0.11004 -0.67741001 -1.2069 4286404769
-0.10786 -0.67644 -1.2052 4286404769
-0.1057 -0.67694002 -1.206 4286404769
-0.10353 -0.67597002 -1.2043 4286404769
-0.11221 -0.67679 -1.2072001 4286404769
-0.11005 -0.67729002 -1.2081 4286404769
-0.10353 -0.67584997 -1.2055 4286404769
-0.11224 -0.67717999 -1.2093 4286404769
-0.11008 -0.67768002 -1.2102 4286404769
-0.10789 -0.67720997 -1.2093 4286404769
-0.10354 -0.67624003 -1.2076 4286404769
-0.11222 -0.67611003 -1.2086999 4286404769
-0.1057 -0.67517 -1.207 4286404769
-0.10354 -0.67566001 -1.2079 4286404769
-0.10354 -0.67445999 -1.2075 4286404769
-0.10354 -0.67374003 -1.2079 4286404769
-0.10354 -0.67363 -1.2091 4286404769
