# .PCD v0.7 - Point Cloud Data file format
VERSION 0.7
FIELDS x y z rgb
SIZE 4 4 4 4
TYPE F F F U
COUNT 1 1 1 1
WIDTH 56
HEIGHT 1
VIEWPOINT 0 0 0 1 0 0 0
POINTS 56
DATA ascii
0.1675 -0.68479002 -1.1935 4281761272
0.16771001 -0.68501002 -1.1945 4281761272
0.16554999 -0.68406999 -1.1956 4281761272
0.16791999 -0.68431997 -1.1961 4281761272
0.16813 -0.68409997 -1.1973 4281761272
0.17008001 -0.68338001 -1.1961 4281761272
0.16813 -0.68369001 -1.1976 4281761272
0.17008001 -0.68296999 -1.1963 4281761272
0.16597 -0.68348998 -1.1982 4281761272
0.16834 -0.68374997 -1.1986001 4281761272
0.16597 -0.68308997 -1.1984 4281761272
0.16834 -0.68334001 -1.1989 4281761272
0.1705 -0.68311 -1.1985 4281761272
0.16597 -0.68268001 -1.1987 4281761272
0.17028999 -0.68223 -1.1979001 4281761272
0.16597 -0.68228 -1.1989 4281761272
0.16834 -0.68254 -1.1993001 4281761272
0.1705 -0.68230999 -1.1989 4281761272
0.16639 -0.68283999 -1.2007999 4281761272
0.16834 -0.68212998 -1.1996 4281761272
0.17028999 -0.68142003 -1.1983 4281761272
0.16402 -0.68216997 -1.2006 4281761272
0.16639 -0.68242002 -1.2011 4281761272
0.16876 -0.68268001 -1.2015001 4281761272
0.17008001 -0.68052 -1.1977 4281761272
0.16381 -0.68125999 -1.2 4281761272
0.16618 -0.68151999 -1.2004 4281761272
0.16876 -0.68225998 -1.2017 4281761272
0.16422001 -0.68175 -1.202 4281761272
0.16639 -0.68151999 -1.2016 4281761272
0.16876 -0.68177998 -1.202 4281761272
0.16639 -0.68103999 -1.2018 4281761272
0.16813 -0.67984998 -1.1997 4281761272
0.16639 -0.68053001 -1.2021 4281761272
0.16834 -0.67982 -1.2009 4281761272
0.16267 -0.68190998 -1.2058001 4281761272
0.16618 -0.67844999 -1.2022001 4281761272
0.1603 -0.68006998 -1.2062 4281761272
0.16422001 -0.67866999 -1.2036999 4281761272
0.16618 -0.67795998 -1.2025 4281761272
0.16855 -0.67821002 -1.2029001 4281761272
0.16226 -0.67828 -1.2056 4281761272
0.16226 -0.67767 -1.2059 4281761272
0.16463 -0.67793 -1.2064 4281761272
0.1605 -0.67824 -1.2084 4281761272
0.16267 -0.67802 -1.2079999 4281761272
0.16484 -0.67778999 -1.2076 4281761272
0.1605 -0.67763001 -1.2086999 4281761272
0.16267 -0.67741001 -1.2083 4281761272
0.16111 -0.67848003 -1.2115999 4281761272
0.15913001 -0.67859 -1.2132 4281761272
0.16288 -0.67672002 -1.2098 4281761272
0.16443001 -0.67505997 -1.2069 4281761272
0.16267 -0.67553002 -1.2094001 4281761272
0.16288 -0.67527997 -1.2106 4281761272
0.16328999 -0.67502999 -1.2130001 4281761272
