# .PCD v0.7 - Point Cloud Data file format
VERSION 0.7
FIELDS x y z rgb
SIZE 4 4 4 4
TYPE F F F U
COUNT 1 1 1 1
WIDTH 68
HEIGHT 1
VIEWPOINT 0 0 0 1 0 0 0
POINTS 68
DATA ascii
0.76962 -0.019247999 -1.4076999 4291377363
0.77183002 -0.019227 -1.4062001 4291377363
0.77574003 -0.019239999 -1.4071 4291377363
0.78021997 -0.019264 -1.4089 4291377363
0.78356999 -0.019266 -1.409 4291377363
0.77353001 -0.018014001 -1.4087 4291377363
0.77801001 -0.018036 -1.4104 4291377363
0.78591001 -0.018122001 -1.4171 4291377363
0.78871 -0.018113 -1.4164 4291377363
0.76966 -0.01657 -1.4125 4291377363
0.77414 -0.016590999 -1.4143 4291377363
0.77806002 -0.016602 -1.4153 4291377363
0.78197998 -0.016612999 -1.4162 4291377363
0.78478003 -0.016604999 -1.4155 4291377363
0.78814 -0.016605999 -1.4155999 4291377363
0.76687998 -0.015154 -1.4132 4291377363
0.77023 -0.015156 -1.4134001 4291377363
0.77471 -0.015175 -1.4152 4291377363
0.77692997 -0.015158 -1.4136 4291377363
0.77970999 -0.015151 -1.4129 4291377363
0.78193003 -0.015134 -1.4114 4291377363
0.78586 -0.015144 -1.4123 4291377363
0.77025998 -0.013882 -1.4182 4291377363
0.78031999 -0.013886 -1.4186 4291377363
0.78197998 -0.013863 -1.4162 4291377363
0.78478003 -0.013856 -1.4155 4291377363
0.78871 -0.013865 -1.4165 4291377363
0.75686997 -0.012237 -1.4128 4291377363
0.77026999 -0.012326 -1.4231 4291377363
0.77249998 -0.012312 -1.4215 4291377363
0.78149998 -0.012385 -1.4299001 4291377363
0.78035003 -0.012329 -1.4234 4291377363
0.78258997 -0.012316 -1.4219 4291377363
0.78425002 -0.012295 -1.4196 4291377363
0.78591001 -0.012275 -1.4172 4291377363
0.78871 -0.012269 -1.4165 4291377363
0.75353998 -0.010842 -1.4174 4291377363
0.75797999 -0.010819 -1.4145 4291377363
0.76747 -0.010853 -1.4189 4291377363
0.77363002 -0.010886 -1.4232 4291377363
0.78037 -0.010925 -1.4283 4291377363
0.78318 -0.010919 -1.4276 4291377363
0.78315997 -0.010882 -1.4227 4291377363
0.78539002 -0.010871 -1.4212 4291377363
0.78762001 -0.010859 -1.4197 4291377363
0.78928 -0.010841 -1.4173 4291377363
0.75353998 -0.0095870001 -1.4174 4291377363
0.75632 -0.0095825 -1.4168 4291377363
0.76411998 -0.0096286004 -1.4236 4291377363
0.77924001 -0.0096492004 -1.4266 4291377363
0.78487003 -0.0096723 -1.4301 4291377363
0.78599 -0.0096506998 -1.4269 4291377363
0.78596002 -0.0096180001 -1.4220001 4291377363
0.78762001 -0.009602 -1.4197 4291377363
0.79556 -0.0096471002 -1.4263 4291377363
0.78092998 -0.0081559997 -1.4291 4291377363
0.78430998 -0.0081567001 -1.4293 4291377363
0.78486001 -0.0081337998 -1.4252 4291377363
0.78596002 -0.0081155999 -1.4220999 4291377363
0.79161 -0.0081348997 -1.4254 4291377363
0.78092003 -0.0067047998 -1.4243 4291377363
0.78372002 -0.0067015002 -1.4236 4291377363
0.78149998 -0.0052649998 -1.4299999 4291377363
0.78261 -0.0052533001 -1.4268 4291377363
0.78486001 -0.0052475999 -1.4253 4291377363
0.79047 -0.0038044001 -1.4238 4291377363
0.79269999 -0.0038002999 -1.4223 4291377363
0.78542 -0.0023850999 -1.4261 4291377363
