# .PCD v0.7 - Point Cloud Data file format
VERSION 0.7
FIELDS x y z rgb
SIZE 4 4 4 4
TYPE F F F U
COUNT 1 1 1 1
WIDTH 64
HEIGHT 1
VIEWPOINT 0 0 0 1 0 0 0
POINTS 64
DATA ascii
-0.74132001 -0.66562998 -1.1614 4280076709
-0.74180001 -0.66578001 -1.1623 4280076709
-0.73922998 -0.66561002 -1.1627001 4280076709
-0.74084997 -0.66433001 -1.1611 4280076709
-0.74111998 -0.66707999 -1.1659 4280076709
-0.74065 -0.6663 -1.1654 4280076709
-0.74132001 -0.66408002 -1.1623 4280076709
-0.73782003 -0.66333002 -1.161 4280076709
-0.74132001 -0.66368002 -1.1625 4280076709
-0.73970997 -0.66466999 -1.1643 4280076709
-0.73970997 -0.66426003 -1.1645 4280076709
-0.74278998 -0.66962999 -1.1739 4280076709
-0.73875999 -0.66299999 -1.1632 4280076709
-0.73572999 -0.66267997 -1.1626 4280076709
-0.73479003 -0.66101998 -1.1615 4280076709
-0.73829001 -0.66137999 -1.1631 4280076709
-0.73782003 -0.66053998 -1.1625 4280076709
-0.73714 -0.66240001 -1.1658 4280076709
-0.74021 -0.66733998 -1.1755 4280076709
-0.73385 -0.65847999 -1.1609 4280076709
-0.73431998 -0.65845001 -1.1619999 4280076709
-0.74300998 -0.66347998 -1.1720001 4280076709
-0.73526001 -0.65881997 -1.1638 4280076709
-0.73411 -0.66023999 -1.1663001 4280076709
-0.73526001 -0.65832001 -1.1641001 4280076709
-0.73269999 -0.65843999 -1.1643 4280076709
-0.73809999 -0.66593999 -1.1775 4280076709
-0.73479003 -0.65736997 -1.1636 4280076709
-0.73316997 -0.65834999 -1.1653 4280076709
-0.73526001 -0.65728003 -1.1647 4280076709
-0.73223001 -0.65696001 -1.1641001 4280076709
-0.73763001 -0.66444999 -1.1774 4280076709
-0.73479003 -0.65636998 -1.1641999 4280076709
-0.73082 -0.65517998 -1.1621 4280076709
-0.72921002 -0.65616 -1.1638 4280076709
-0.73290002 -0.65416002 -1.1614 4280076709
-0.73082 -0.65470999 -1.1623 4280076709
-0.73389 -0.66001999 -1.1718 4280076709
-0.73082 -0.65412998 -1.1626 4280076709
-0.72968 -0.65553999 -1.1652 4280076709
-0.73176003 -0.65441 -1.1645 4280076709
-0.72921002 -0.65451002 -1.1647 4280076709
-0.74044001 -0.65932 -1.1747 4280076709
-0.73035002 -0.65252 -1.1625 4280076709
-0.72826999 -0.65306002 -1.1635 4280076709
-0.73223001 -0.65366 -1.1659 4280076709
-0.72733998 -0.65161002 -1.1623 4280076709
-0.73316997 -0.65395999 -1.1677999 4280076709
-0.72826999 -0.65191001 -1.1641001 4280076709
-0.72713 -0.65331 -1.1666 4280076709
-0.73035002 -0.65081 -1.1635 4280076709
-0.72733998 -0.65048999 -1.1629 4280076709
-0.72921002 -0.65153003 -1.1664 4280076709
-0.72618997 -0.6512 -1.1658 4280076709
-0.73061001 -0.65211999 -1.1691 4280076709
-0.72851998 -0.65265 -1.1701 4280076709
-0.72781003 -0.64895999 -1.1648 4280076709
-0.72713 -0.65078002 -1.1681 4280076709
-0.73154998 -0.65182 -1.1713001 4280076709
-0.72478998 -0.64805001 -1.1645 4280076709
-0.73014998 -0.64982003 -1.1694 4280076709
-0.72293001 -0.64563 -1.1618 4280076709
-0.72592998 -0.64525002 -1.1628 4280076709
-0.72386003 -0.64578003 -1.1638 4280076709
