# .PCD v0.7 - Point Cloud Data file format
VERSION 0.7
FIELDS x y z rgb
SIZE 4 4 4 4
TYPE F F F U
COUNT 1 1 1 1
WIDTH 102
HEIGHT 1
VIEWPOINT 0 0 0 1 0 0 0
POINTS 102
DATA ascii
-0.48916 -0.67309999 -1.2112 4293113180
-0.48886001 -0.67115003 -1.2112 4293113180
-0.48669001 -0.67004001 -1.2126 4293113180
-0.49283999 -0.67142999 -1.2168 4293113180
-0.48945999 -0.66992003 -1.2141 4293113180
-0.48638999 -0.66886997 -1.2122 4293113180
-0.49254 -0.67018002 -1.2164 4293113180
-0.48855999 -0.66775 -1.212 4293113180
-0.49254 -0.66939002 -1.2169 4293113180
-0.49035999 -0.66971999 -1.2175 4293113180
-0.49254 -0.66867 -1.2173001 4293113180
-0.48787999 -0.66886997 -1.2176 4293113180
-0.49162999 -0.66657001 -1.2151999 4293113180
-0.48945999 -0.66689998 -1.2158 4293113180
-0.48818001 -0.66860998 -1.2189 4293113180
-0.48787999 -0.66724998 -1.2185 4293113180
-0.49563 -0.66716999 -1.2206 4293113180
-0.49096 -0.66737998 -1.2209001 4293113180
-0.48787999 -0.66633999 -1.219 4293113180
-0.49441001 -0.66456002 -1.2176 4293113180
-0.49224001 -0.66488999 -1.2182 4293113180
-0.48976001 -0.66477001 -1.2180001 4293113180
-0.48787999 -0.66554999 -1.2194 4293113180
-0.4975 -0.66481 -1.22 4293113180
-0.49471 -0.66422999 -1.2189 4293113180
-0.49193001 -0.66364998 -1.2178 4293113180
-0.48976001 -0.66398001 -1.2184 4293113180
-0.50120997 -0.66584998 -1.224 4293113180
-0.49254 -0.66365999 -1.22 4293113180
-0.49006 -0.66354001 -1.2198 4293113180
-0.50243998 -0.66587001 -1.2283 4293113180
-0.49344999 -0.66324002 -1.2235 4293113180
-0.49592999 -0.66249001 -1.2242 4293113180
-0.50401002 -0.66281003 -1.227 4293113180
-0.49592999 -0.66154999 -1.2247 4293113180
-0.50932002 -0.66254002 -1.2288001 4293113180
-0.50401002 -0.66187 -1.2275 4293113180
-0.50963002 -0.66204 -1.2301 4293113180
-0.50713003 -0.66193002 -1.2299 4293113180
-0.50432003 -0.66136003 -1.2289 4293113180
-0.50274998 -0.66259998 -1.2312 4293113180
-0.51837999 -0.65969998 -1.2280999 4293113180
-0.51275998 -0.66207999 -1.2325 4293113180
-0.50963002 -0.66108 -1.2307 4293113180
-0.50651002 -0.66007 -1.2288001 4293113180
-0.50432003 -0.66039997 -1.2294 4293113180
-0.49933001 -0.66017002 -1.229 4293113180
-0.51998001 -0.66096997 -1.2328 4293113180
-0.51495999 -0.66075999 -1.2323999 4293113180
-0.51213998 -0.66021001 -1.2314 4293113180
-0.50870001 -0.65876001 -1.2287 4293113180
-0.50651002 -0.65908998 -1.2293 4293113180
-0.50524998 -0.66078001 -1.2323999 4293113180
-0.51966 -0.65954 -1.2325 4293113180
-0.51495999 -0.65978998 -1.2329 4293113180
-0.51151001 -0.65833998 -1.2302001 4293113180
-0.50901002 -0.65823001 -1.23 4293113180
-0.50743997 -0.65947002 -1.2323 4293113180
-0.50463003 -0.65890998 -1.2313 4293113180
-0.51966 -0.65850002 -1.233 4293113180
-0.51526999 -0.65919 -1.2343 4293113180
-0.51244998 -0.65864003 -1.2333 4293113180
-0.50870001 -0.65674001 -1.2297 4293113180
-0.50651002 -0.65707999 -1.2304 4293113180
-0.50432003 -0.65741003 -1.2309999 4293113180
-0.52121001 -0.65622002 -1.2313 4293113180
-0.51837999 -0.65568 -1.2302001 4293113180
-0.51591003 -0.65904999 -1.2366 4293113180
-0.51025999 -0.65793997 -1.2345001 4293113180
-0.50774997 -0.65783 -1.2343 4293113180
-0.52533001 -0.65759999 -1.2361 4293113180
-0.52152997 -0.65572 -1.2326 4293113180
-0.51902002 -0.65562999 -1.2323999 4293113180
-0.51683003 -0.65596998 -1.2331001 4293113180
-0.51621997 -0.65854001 -1.2379 4293113180
-0.51056999 -0.65744001 -1.2358 4293113180
-0.50774997 -0.65688998 -1.2348 4293113180
-0.52500999 -0.65621001 -1.2358 4293113180
-0.51778001 -0.65635997 -1.2361 4293113180
-0.51653999 -0.65803999 -1.2392 4293113180
-0.51308 -0.6566 -1.2365 4293113180
-0.52280998 -0.65546 -1.237 4293113180
-0.51841998 -0.65614998 -1.2383 4293113180
-0.51526999 -0.65516001 -1.2365 4293113180
-0.51275998 -0.65505999 -1.2363 4293113180
-0.509 -0.65662003 -1.2392 4293113180
-0.52125001 -0.65556997 -1.24 4293113180
-0.51874 -0.65547001 -1.2398 4293113180
-0.51591003 -0.65493 -1.2387 4293113180
-0.51339 -0.65482998 -1.2385 4293113180
-0.51056999 -0.65428001 -1.2375 4293113180
-0.52094001 -0.65419 -1.2395999 4293113180
-0.51874 -0.65452999 -1.2403001 4293113180
-0.51653999 -0.65487999 -1.2409 4293113180
-0.51402003 -0.65477002 -1.2407 4293113180
-0.51182002 -0.65511 -1.2414 4293113180
-0.51621997 -0.65328002 -1.2407 4293113180
-0.51371002 -0.65318 -1.2405 4293113180
-0.51151001 -0.65351999 -1.2411 4293113180
-0.51874 -0.65224999 -1.2415 4293113180
-0.51621997 -0.65214998 -1.2413 4293113180
-0.51402003 -0.65249002 -1.2419 4293113180
