# .PCD v0.7 - Point Cloud Data file format
VERSION 0.7
FIELDS x y z rgb
SIZE 4 4 4 4
TYPE F F F U
COUNT 1 1 1 1
WIDTH 50
HEIGHT 1
VIEWPOINT 0 0 0 1 0 0 0
POINTS 50
DATA ascii
-0.75352001 -0.40865999 -1.2266999 4279157659
-0.75252998 -0.40678 -1.2255 4279157659
-0.75304002 -0.40439001 -1.2223001 4279157659
-0.75103998 -0.40474999 -1.2234 4279157659
-0.75253999 -0.40301999 -1.2219 4279157659
-0.75054997 -0.40338001 -1.223 4279157659
-0.75353998 -0.40077999 -1.2196 4279157659
-0.75204998 -0.40141001 -1.2215 4279157659
-0.75554001 -0.40063 -1.2233 4279157659
-0.75155002 -0.39989999 -1.2211 4279157659
-0.75054997 -0.40079999 -1.2237999 4279157659
-0.75652999 -0.40005001 -1.2253 4279157659
-0.75155002 -0.39879 -1.2214 4279157659
-0.74954998 -0.39914 -1.2225 4279157659
-0.75353998 -0.39708999 -1.2208 4279157659
-0.75105 -0.39717001 -1.2211 4279157659
-0.74956 -0.39515001 -1.219 4279157659
-0.74856001 -0.39603999 -1.2217 4279157659
-0.75404 -0.39642 -1.2268 4279157659
-0.75154001 -0.39651 -1.227 4279157659
-0.75454003 -0.39387 -1.2237 4279157659
-0.75253999 -0.39421999 -1.2247 4279157659
-0.75253999 -0.39298999 -1.2251 4279157659
-0.75054997 -0.39333999 -1.2262 4279157659
-0.75253999 -0.39188999 -1.2255 4279157659
-0.74905998 -0.39144 -1.2241 4279157659
-0.75305003 -0.38957 -1.2223001 4279157659
-0.75055999 -0.38966 -1.2226 4279157659
-0.75103998 -0.39131999 -1.2278 4279157659
-0.75155002 -0.38890001 -1.2246 4279157659
-0.74954998 -0.38925001 -1.2257 4279157659
-0.75155002 -0.38780001 -1.225 4279157659
-0.74658 -0.38657001 -1.2211 4279157659
-0.74953002 -0.38953999 -1.2305 4279157659
-0.75054997 -0.38464999 -1.2193 4279157659
-0.74658 -0.38395 -1.2171 4279157659
-0.74558997 -0.38482001 -1.2198 4279157659
-0.74807 -0.38341999 -1.22 4279157659
-0.74409997 -0.38271999 -1.2178 4279157659
-0.74953002 -0.38696 -1.2313 4279157659
-0.74807 -0.38372001 -1.2247 4279157659
-0.75353998 -0.38258001 -1.2254 4279157659
-0.75155002 -0.38292 -1.2265 4279157659
-0.75105 -0.38141 -1.2261 4279157659
-0.75255001 -0.37827 -1.2249 4279157659
-0.75055999 -0.37860999 -1.226 4279157659
-0.75006002 -0.37709999 -1.2256 4279157659
-0.75055999 -0.37612 -1.2268 4279157659
-0.75105 -0.36895999 -1.2251 4279157659
-0.75105 -0.36765999 -1.2255 4279157659
