# .PCD v0.7 - Point Cloud Data file format
VERSION 0.7
FIELDS x y z rgb
SIZE 4 4 4 4
TYPE F F F U
COUNT 1 1 1 1
WIDTH 379
HEIGHT 1
VIEWPOINT 0 0 0 1 0 0 0
POINTS 379
DATA ascii
0.25863999 -0.0064488002 -1.13 4283862449
0.26655999 -0.0064810002 -1.1356 4283862449
0.26690999 -0.0053503001 -1.1366 4283862449
0.26899001 -0.0053516999 -1.1368999 4283862449
0.27002999 -0.0053399 -1.1344 4283862449
0.27210999 -0.0053412998 -1.1346999 4283862449
0.26655999 -0.0041812998 -1.1356 4283862449
0.26899001 -0.0041858 -1.1368999 4283862449
0.27107 -0.0041868999 -1.1372 4283862449
0.27419999 -0.0041983998 -1.1403 4283862449
0.27664 -0.0042029 -1.1415 4283862449
0.27765 -0.0041739 -1.1336 4283862449
0.28360999 -0.0041931998 -1.1389 4283862449
0.25966001 -0.0030269001 -1.1328 4283862449
0.26172999 -0.0030276999 -1.1331 4283862449
0.26517001 -0.0030386001 -1.1372 4283862449
0.26725 -0.0030394001 -1.1375 4283862449
0.26899001 -0.0030377 -1.1368999 4283862449
0.27107 -0.0030385 -1.1372 4283862449
0.27246001 -0.0030342999 -1.1356 4283862449
0.27454001 -0.0030350999 -1.1359 4283862449
0.27663001 -0.0030358001 -1.1362 4283862449
0.27801001 -0.0030316 -1.1346 4283862449
0.28116 -0.0030398001 -1.1377 4283862449
0.25999999 -0.0018962 -1.1338 4283862449
0.26207 -0.0018967 -1.1341 4283862449
0.26482999 -0.0019004 -1.1363 4283862449
0.26690999 -0.0019009 -1.1366 4283862449
0.26899001 -0.0019014 -1.1368999 4283862449
0.27037001 -0.0018988 -1.1353 4283862449
0.27246001 -0.0018993 -1.1356 4283862449
0.27489001 -0.0019013 -1.1368001 4283862449
0.27733001 -0.0019033001 -1.138 4283862449
0.27941999 -0.0019037999 -1.1382999 4283862449
0.28116 -0.0019027001 -1.1377 4283862449
0.28325 -0.0019032001 -1.1379 4283862449
0.25788 -0.00088732003 -1.1388 4283862449
0.25894001 -0.00088537001 -1.1363 4283862449
0.25999999 -0.00088342 -1.1338 4283862449
0.26172999 -0.00088293001 -1.1331 4283862449
0.26447999 -0.00088463997 -1.1353 4283862449
0.26622 -0.00088414003 -1.1346999 4283862449
0.26864001 -0.00088511 -1.1359 4283862449
0.27037001 -0.00088461 -1.1353 4283862449
0.27489001 -0.00088579999 -1.1368001 4283862449
0.27663001 -0.00088528998 -1.1362 4283862449
0.27906999 -0.00088623998 -1.1374 4283862449
0.28080001 -0.00088573003 -1.1367 4283862449
0.28253999 -0.00088521 -1.1361001 4283862449
0.25793001 0.00034743999 -1.1334 4283862449
0.25966001 0.00034725 -1.1328 4283862449
0.26139 0.00034706001 -1.1322 4283862449
0.26346001 0.00034714999 -1.1325001 4283862449
0.26552999 0.00034725 -1.1328 4283862449
0.2676 0.00034734001 -1.1331 4283862449
0.26932999 0.00034714001 -1.1325001 4283862449
0.27175999 0.00034751999 -1.1337 4283862449
0.27454001 0.00034818999 -1.1359 4283862449
0.27627 0.00034798999 -1.1352 4283862449
0.27765 0.0003475 -1.1337 4283862449
0.27903 0.00034701001 -1.1321 4283862449
0.28110999 0.00034709999 -1.1323 4283862449
0.25966001 0.0014738 -1.1328 4283862449
0.26139 0.001473 -1.1322 4283862449
0.2638 0.0014747001 -1.1335 4283862449
0.26552999 0.0014738 -1.1328 4283862449
0.26725999 0.001473 -1.1322 4283862449
0.26899001 0.0014722 -1.1316 4283862449
0.27105999 0.0014726 -1.1319 4283862449
0.27384001 0.0014753999 -1.1339999 4283862449
0.27557001 0.0014745001 -1.1334 4283862449
0.2773 0.0014737 -1.1327 4283862449
0.27903 0.0014728 -1.1321 4283862449
0.28218001 0.0014769 -1.1351 4283862449
0.28637001 0.0014776 -1.1357 4283862449
0.26139 0.0024915 -1.1322 4283862449
0.2638 0.0024941999 -1.1335 4283862449
0.26552999 0.0024929 -1.1328 4283862449
0.2676 0.0024935 -1.1331 4283862449
0.26932999 0.0024921 -1.1325001 4283862449
0.27070999 0.0024886001 -1.1309 4283862449
0.27314001 0.0024914001 -1.1321 4283862449
0.27557001 0.0024939999 -1.1334 4283862449
0.2773 0.0024925999 -1.1327 4283862449
0.27937999 0.0024931999 -1.133 4283862449
0.28110999 0.0024918001 -1.1323 4283862449
0.28391001 0.0024965 -1.1345 4283862449
0.28529 0.0024929999 -1.1329 4283862449
0.28773999 0.0024955999 -1.1341 4283862449
0.26034001 0.0037803999 -1.1346999 4283862449
0.26207 0.0037783 -1.1341 4283862449
0.2638 0.0037762001 -1.1335 4283862449
0.26552999 0.0037741 -1.1328 4283862449
0.26795 0.0037781999 -1.1341 4283862449
0.27037001 0.0037823999 -1.1353 4283862449
0.27210999 0.0037801999 -1.1346999 4283862449
0.27349001 0.0037750001 -1.1331 4283862449
0.27557001 0.0037759 -1.1334 4283862449
0.27765 0.0037769 -1.1336 4283862449
0.28044999 0.0037839999 -1.1358 4283862449
0.28183001 0.0037787 -1.1342 4283862449
0.28284001 0.0037703 -1.1317 4283862449
0.28457001 0.0037680999 -1.131 4283862449
0.28701001 0.0037721 -1.1322 4283862449
0.26067999 0.0049783001 -1.1356 4283862449
0.26207 0.0049715 -1.1341 4283862449
0.2638 0.0049687 -1.1334 4283862449
0.26519001 0.0049617998 -1.1319 4283862449
0.2683 0.0049755001 -1.135 4283862449
0.27107 0.004985 -1.1372 4283862449
0.27210999 0.0049740002 -1.1346999 4283862449
0.27243999 0.0049546999 -1.1303 4283862449
0.27451 0.004956 -1.1305 4283862449
0.27658999 0.0049573001 -1.1308 4283862449
0.27937999 0.0049667 -1.133 4283862449
0.28075999 0.0049597002 -1.1314 4283862449
0.28284001 0.0049609002 -1.1317 4283862449
0.28565001 0.0049703 -1.1338 4283862449
0.28773999 0.0049713999 -1.1341 4283862449
0.26071 0.0059405002 -1.1303 4283862449
0.26209 0.0059322999 -1.1287 4283862449
0.2676 0.0059552998 -1.1331 4283862449
0.26967999 0.0059568002 -1.1334 4283862449
0.27035999 0.0059386999 -1.13 4283862449
0.27279001 0.0059452001 -1.1312 4283862449
0.27557001 0.0059564998 -1.1334 4283862449
0.27695 0.0059481999 -1.1318001 4283862449
0.27867001 0.0059447 -1.1311001 4283862449
0.28637001 0.0059687002 -1.1357 4283862449
0.2881 0.0059651001 -1.135 4283862449
0.26484001 0.0070972 -1.1309 4283862449
0.26657 0.0070932 -1.1303 4283862449
0.27002001 0.0070851999 -1.1289999 4283862449
0.27138999 0.0070753 -1.1274 4283862449
0.27451 0.0070948 -1.1305 4283862449
0.2773 0.0071083 -1.1327 4283862449
0.27832001 0.0070924 -1.1302 4283862449
0.27969 0.0070825 -1.1286 4283862449
0.28176001 0.0070842002 -1.1289001 4283862449
0.28529 0.0071092998 -1.1329 4283862449
0.28773999 0.0071168002 -1.1341 4283862449
0.26449999 0.0081882998 -1.13 4283862449
0.26690999 0.0081973998 -1.1312 4283862449
0.27070999 0.0081949001 -1.1309 4283862449
0.27138999 0.0081698997 -1.1274 4283862449
0.27311 0.0081652002 -1.1267999 4283862449
0.27695 0.0082011996 -1.1318001 4283862449
0.27903 0.0082032001 -1.132 4283862449
0.27969 0.0081781 -1.1286 4283862449
0.28033 0.0081530996 -1.1251 4283862449
0.28241 0.0081551 -1.1253999 4283862449
0.28665 0.0081975004 -1.1312 4283862449
0.26449999 0.0092053004 -1.13 4283862449
0.26690999 0.0092155002 -1.1312 4283862449
0.26899001 0.0092179002 -1.1315 4283862449
0.27105999 0.0092203002 -1.1318001 4283862449
0.27173999 0.0091922004 -1.1284 4283862449
0.27381 0.0091946004 -1.1287 4283862449
0.27695 0.0092198001 -1.1317 4283862449
0.27937999 0.0092297001 -1.133 4283862449
0.28040001 0.0092091002 -1.1303999 4283862449
0.28105 0.0091808997 -1.127 4283862449
0.29010001 0.0092046997 -1.1299 4283862449
0.26141 0.010482 -1.1267999 4283862449
0.26381001 0.010494 -1.1281 4283862449
0.26519001 0.010479 -1.1265 4283862449
0.27173999 0.010496 -1.1283 4283862449
0.27416 0.010508 -1.1296 4283862449
0.27623999 0.010511 -1.1299 4283862449
0.27796 0.010504 -1.1292 4283862449
0.27897 0.010481 -1.1267 4283862449
0.28105 0.010484 -1.127 4283862449
0.28874001 0.010526 -1.1315 4283862449
0.26209 0.011734 -1.1287 4283862449
0.26484001 0.011756 -1.1309 4283862449
0.26657 0.01175 -1.1303 4283862449
0.26725 0.011714 -1.1267999 4283862449
0.27208999 0.01174 -1.1293 4283862449
0.27557001 0.011782 -1.1332999 4283862449
0.27658999 0.011755 -1.1308 4283862449
0.27832001 0.011749 -1.1301 4283862449
0.27969 0.011732 -1.1285 4283862449
0.28176001 0.011735 -1.1288 4283862449
0.24941 0.012716 -1.1258 4283862449
0.25867 0.012702 -1.1246001 4283862449
0.26141 0.012727 -1.1267999 4283862449
0.26381001 0.012741 -1.1281 4283862449
0.26587999 0.012745 -1.1284 4283862449
0.26690999 0.012716 -1.1259 4283862449
0.27173999 0.012744 -1.1283 4283862449
0.27381 0.012748 -1.1286 4283862449
0.27553001 0.01274 -1.128 4283862449
0.27689999 0.012722 -1.1264 4283862449
0.28004 0.012757 -1.1295 4283862449
0.28176001 0.01275 -1.1288 4283862449
0.24941 0.013787 -1.1258 4283862449
0.25900999 0.013784 -1.1255 4283862449
0.26141 0.0138 -1.1267999 4283862449
0.26346999 0.013804 -1.1271 4283862449
0.26519001 0.013796 -1.1265 4283862449
0.2676 0.013811 -1.1277 4283862449
0.26967001 0.013815 -1.128 4283862449
0.27311 0.013799 -1.1267 4283862449
0.27654001 0.013783 -1.1253999 4283862449
0.28211999 0.013836 -1.1296999 4283862449
0.24975 0.014891 -1.1267 4283862449
0.26141 0.014892 -1.1267999 4283862449
0.26278001 0.014871 -1.1252 4283862449
0.26484001 0.014875 -1.1255 4283862449
0.26690999 0.014879 -1.1258 4283862449
0.26967001 0.014908 -1.128 4283862449
0.27068999 0.014875 -1.1255 4283862449
0.27689999 0.014886 -1.1264 4283862449
0.27790001 0.014853 -1.1238 4283862449
0.25145999 0.015993999 -1.1260999 4283862449
0.25285 0.015972 -1.1245 4283862449
0.25935 0.015999001 -1.1264 4283862449
0.26106 0.01599 -1.1258 4283862449
0.26278001 0.015981 -1.1252 4283862449
0.26552999 0.016012 -1.1274 4283862449
0.26795 0.016030001 -1.1286 4283862449
0.26967001 0.016021 -1.128 4283862449
0.27068999 0.015985001 -1.1255 4283862449
0.27689999 0.015997 -1.1263 4283862449
0.27897 0.016000999 -1.1266 4283862449
0.28105 0.016005 -1.1269 4283862449
0.28241 0.015983 -1.1253 4283862449
0.24975 0.017166 -1.1267 4283862449
0.2518 0.017170999 -1.127 4283862449
0.25318 0.017147999 -1.1255 4283862449
0.25490001 0.017138001 -1.1248 4283862449
0.25661001 0.017129 -1.1242 4283862449
0.25900999 0.017147999 -1.1255 4283862449
0.26106 0.017153 -1.1258 4283862449
0.26313001 0.017158 -1.1260999 4283862449
0.26690999 0.017153 -1.1258 4283862449
0.26932001 0.017171999 -1.127 4283862449
0.27654001 0.017147001 -1.1253999 4283862449
0.27860999 0.017151 -1.1257 4283862449
0.28141001 0.017184 -1.1278 4283862449
0.24875 0.018457999 -1.1238 4283862449
0.25523001 0.01849 -1.1258 4283862449
0.25729001 0.018495001 -1.1260999 4283862449
0.25935 0.0185 -1.1264 4283862449
0.26313001 0.018495001 -1.1260999 4283862449
0.27583 0.018452 -1.1235 4283862449
0.28105 0.018507 -1.1269 4283862449
0.24908 0.019512 -1.1247 4283862449
0.25900999 0.019524001 -1.1255 4283862449
0.26346999 0.019551 -1.127 4283862449
0.26552001 0.019463999 -1.122 4283862449
0.27412 0.019501001 -1.1241 4283862449
0.27682999 0.019446 -1.1210001 4283862449
0.2467 0.020612 -1.1234 4283862449
0.24908 0.020636 -1.1247 4283862449
0.26585999 0.020602999 -1.1229 4283862449
0.26894 0.020562001 -1.1207 4283862449
0.27583 0.020613 -1.1235 4283862449
0.27754 0.020601001 -1.1228 4283862449
0.27961001 0.020606 -1.1231 4283862449
0.24908 0.021737 -1.1247 4283862449
0.26414999 0.021714 -1.1235 4283862449
0.26999 0.021713 -1.1235 4283862449
0.27135 0.021683 -1.1219 4283862449
0.27305999 0.021671001 -1.1213 4283862449
0.27583 0.021712 -1.1234 4283862449
0.27860999 0.021754 -1.1256 4283862449
0.26791999 0.022791 -1.1232001 4283862449
0.26964 0.022778001 -1.1224999 4283862449
0.27135 0.022764999 -1.1219 4283862449
0.27340999 0.022771001 -1.1222 4283862449
0.27583 0.022795999 -1.1234 4283862449
0.27897 0.022859 -1.1265 4283862449
0.26791999 0.023886999 -1.1232001 4283862449
0.26929 0.023854 -1.1216 4283862449
0.27063999 0.02382 -1.12 4283862449
0.27340999 0.023866 -1.1222 4283862449
0.27619001 0.023912 -1.1243 4283862449
0.27897 0.023957999 -1.1265 4283862449
0.26894 0.024939001 -1.1206 4283862449
0.27063999 0.024924999 -1.12 4283862449
0.27270001 0.024932001 -1.1203001 4283862449
0.27476999 0.024938 -1.1206 4283862449
0.27754 0.024986001 -1.1227 4283862449
0.26894 0.026045 -1.1206 4283862449
0.27340999 0.026079999 -1.1221 4283862449
0.27441001 0.026022 -1.1196001 4283862449
0.27682999 0.02605 -1.1208 4283862449
0.271 0.027156999 -1.1209 4283862449
0.27305999 0.027163999 -1.1212 4283862449
0.27441001 0.027125999 -1.1196001 4283862449
0.27612001 0.027109999 -1.1188999 4283862449
0.26894 0.028263001 -1.1205 4283862449
0.271 0.028270001 -1.1208 4283862449
0.27270001 0.028254 -1.1202 4283862449
0.27476999 0.028261 -1.1205 4283862449
0.27647001 0.028245 -1.1198 4283862449
0.27028999 0.029341999 -1.1188999 4283862449
0.27200001 0.029324999 -1.1183 4283862449
0.27406001 0.029332001 -1.1186 4283862449
0.27647001 0.029363999 -1.1198 4283862449
0.28123 0.029287999 -1.1169 4283862449
0.26929 0.030521 -1.1214 4283862449
0.27028999 0.030453 -1.1188999 4283862449
0.27094001 0.030359 -1.1155 4283862449
0.27298999 0.030367 -1.1158 4283862449
0.27575999 0.030424999 -1.1179 4283862449
0.27781999 0.030432999 -1.1181999 4283862449
0.27917001 0.03039 -1.1166 4283862449
0.28292999 0.030378999 -1.1162 4283862449
0.26894 0.031601001 -1.1205 4283862449
0.27028999 0.031555999 -1.1188999 4283862449
0.27406001 0.031546 -1.1185 4283862449
0.27612001 0.031555001 -1.1188 4283862449
0.27853999 0.031589001 -1.12 4283862449
0.27989 0.031544 -1.1184 4283862449
0.28086999 0.031473 -1.1159 4283862449
0.28329 0.031507 -1.1171 4283862449
0.26754001 0.032611001 -1.1167001 4283862449
0.27235001 0.032683 -1.1191 4283862449
0.27476999 0.032719001 -1.1204 4283862449
0.27719 0.032754999 -1.1216 4283862449
0.27853999 0.032708 -1.12 4283862449
0.27989 0.032662001 -1.1184 4283862449
0.28123 0.032614999 -1.1168 4283862449
0.28780001 0.032666001 -1.1185 4283862449
0.28839999 0.032565001 -1.1151 4283862449
0.29082999 0.032598998 -1.1163 4283862449
0.26754001 0.033741999 -1.1166 4283862449
0.26993999 0.033778999 -1.1179 4283862449
0.27235001 0.033815999 -1.1191 4283862449
0.27335 0.033739999 -1.1166 4283862449
0.27469 0.033693001 -1.115 4283862449
0.27638999 0.033673 -1.1144 4283862449
0.27845001 0.033681002 -1.1145999 4283862449
0.28014001 0.033661999 -1.114 4283862449
0.28646001 0.033847 -1.1201 4283862449
0.28705999 0.033741999 -1.1166 4283862449
0.28839999 0.033693999 -1.115 4283862449
0.29045999 0.033700999 -1.1153001 4283862449
0.26859 0.034952998 -1.1194 4283862449
0.27063999 0.034963001 -1.1197 4283862449
0.27235001 0.034942999 -1.1191 4283862449
0.27263999 0.034805998 -1.1147 4283862449
0.27397999 0.034756001 -1.1131001 4283862449
0.27746001 0.034882002 -1.1171 4283862449
0.27989 0.03492 -1.1183 4283862449
0.28536001 0.034887001 -1.1173 4283862449
0.28742999 0.034894999 -1.1174999 4283862449
0.28913 0.034874 -1.1169 4283862449
0.29194 0.034940001 -1.119 4283862449
0.29365 0.034917999 -1.1183 4283862449
0.26958999 0.035992 -1.1169 4283862449
0.27094001 0.035941001 -1.1153001 4283862449
0.27298999 0.035950001 -1.1156 4283862449
0.27505001 0.03596 -1.1159 4283862449
0.27853999 0.036088999 -1.1199 4283862449
0.27989 0.036038 -1.1183 4283862449
0.28329 0.035994999 -1.117 4283862449
0.28573 0.036033999 -1.1181999 4283862449
0.28780001 0.036042001 -1.1184 4283862449
0.2895 0.036021002 -1.1178 4283862449
0.29157001 0.036029 -1.118 4283862449
0.27057999 0.037002999 -1.1143 4283862449
0.2737 0.037106 -1.1174001 4283862449
0.27711001 0.037062999 -1.1161 4283862449
0.27845001 0.037009999 -1.1145 4283862449
0.28014001 0.036988001 -1.1138999 4283862449
0.28329 0.03709 -1.1169 4283862449
0.28608999 0.037161 -1.1191 4283862449
0.28742999 0.037108 -1.1174999 4283862449
0.28803 0.036993001 -1.114 4283862449
0.29045999 0.037032001 -1.1152 4283862449
0.27675 0.038102999 -1.1152 4283862449
0.28051001 0.038090002 -1.1148 4283862449
0.28365999 0.038194999 -1.1178 4283862449
0.28463 0.038109001 -1.1153001 4283862449
0.28670001 0.038116999 -1.1156 4283862449
0.28123 0.039269999 -1.1166 4283862449
