# .PCD v0.7 - Point Cloud Data file format
VERSION 0.7
FIELDS x y z rgb
SIZE 4 4 4 4
TYPE F F F U
COUNT 1 1 1 1
WIDTH 85
HEIGHT 1
VIEWPOINT 0 0 0 1 0 0 0
POINTS 85
DATA ascii
0.076141998 -0.67300999 -1.2163 4294646525
0.078459002 -0.67334002 -1.2169 4294646525
0.058699001 -0.67341 -1.2187001 4294646525
0.069737002 -0.67321002 -1.2184 4294646525
0.071918003 -0.67307001 -1.2181 4294646525
0.074098997 -0.67293 -1.2179 4294646525
0.076003999 -0.67181998 -1.2158999 4294646525
0.078041002 -0.67119998 -1.2147 4294646525
0.058699001 -0.67269999 -1.2191 4294646525
0.071918003 -0.67236 -1.2185 4294646525
0.074369997 -0.67316997 -1.22 4294646525
0.076278999 -0.67207003 -1.2180001 4294646525
0.077901997 -0.67000997 -1.2143 4294646525
0.059069999 -0.67334998 -1.2222 4294646525
0.060631 -0.67082 -1.2176 4294646525
0.069605 -0.67123002 -1.2183 4294646525
0.071918003 -0.67157 -1.219 4294646525
0.074506 -0.67286003 -1.2213 4294646525
0.076691002 -0.67271 -1.221 4294646525
0.078598 -0.67161 -1.219 4294646525
0.058823001 -0.67159998 -1.2209001 4294646525
0.063063003 -0.67084998 -1.2194999 4294646525
0.070000999 -0.67186999 -1.2214 4294646525
0.071918003 -0.67078 -1.2194 4294646525
0.074235 -0.67110997 -1.22 4294646525
0.076416999 -0.67097002 -1.2197 4294646525
0.078598 -0.67082 -1.2194999 4294646525
0.080779001 -0.67066997 -1.2192 4294646525
0.058947001 -0.67135 -1.2221 4294646525
0.060881 -0.67026001 -1.2201999 4294646525
0.063063003 -0.67013001 -1.2199 4294646525
0.065629996 -0.67141998 -1.2223001 4294646525
0.069737002 -0.67018998 -1.22 4294646525
0.071918003 -0.67005002 -1.2198 4294646525
0.074369997 -0.67085999 -1.2213 4294646525
0.076554 -0.67071998 -1.221 4294646525
0.079015002 -0.67151999 -1.2225 4294646525
0.083530001 -0.6717 -1.2228 4294646525
0.058699001 -0.66966999 -1.2208 4294646525
0.061383002 -0.67144001 -1.224 4294646525
0.062936001 -0.66892999 -1.2194 4294646525
0.065759003 -0.67118001 -1.2236 4294646525
0.067685999 -0.67008001 -1.2216001 4294646525
0.070133999 -0.67089999 -1.223 4294646525
0.072319999 -0.67075998 -1.2228 4294646525
0.074506 -0.67061001 -1.2225 4294646525
0.076829001 -0.67095 -1.2230999 4294646525
0.079015002 -0.67079997 -1.2229 4294646525
0.081202 -0.67065001 -1.2226 4294646525
0.083244003 -0.67001998 -1.2215 4294646525
0.085571997 -0.67035002 -1.222 4294646525
0.059193999 -0.67067999 -1.2248 4294646525
0.061508 -0.67101997 -1.2254 4294646525
0.063570999 -0.67040998 -1.2243 4294646525
0.065629996 -0.66979998 -1.2232 4294646525
0.070266001 -0.67047 -1.2244 4294646525
0.072319999 -0.66986001 -1.2233 4294646525
0.074369997 -0.66924 -1.2222 4294646525
0.078736998 -0.66895002 -1.2216001 4294646525
0.081341997 -0.67022997 -1.224 4294646525
0.082958996 -0.66816998 -1.2201999 4294646525
0.085716002 -0.66992003 -1.2234 4294646525
0.059069999 -0.66927999 -1.2244 4294646525
0.061632998 -0.67058003 -1.2268 4294646525
0.063824996 -0.67044002 -1.2265 4294646525
0.065759003 -0.66935998 -1.2244999 4294646525
0.067947 -0.66921997 -1.2243 4294646525
0.069737002 -0.66764998 -1.2214 4294646525
0.072186001 -0.66846001 -1.2229 4294646525
0.081482999 -0.66978002 -1.2253 4294646525
0.083244003 -0.66821003 -1.2224 4294646525
0.085571997 -0.66852999 -1.223 4294646525
0.088195004 -0.66979998 -1.2254 4294646525
0.063698001 -0.66917998 -1.2261 4294646525
0.065759003 -0.66856998 -1.225 4294646525
0.067685999 -0.66747999 -1.223 4294646525
0.070398003 -0.66924 -1.2262 4294646525
0.072587997 -0.66909999 -1.226 4294646525
0.081765004 -0.66993999 -1.2275 4294646525
0.083957002 -0.66979003 -1.2272 4294646525
0.085716002 -0.66821998 -1.2243 4294646525
0.068208002 -0.66859001 -1.2269 4294646525
0.081482999 -0.66820002 -1.2262 4294646525
0.083530001 -0.66758001 -1.225 4294646525
0.087463997 -0.66586 -1.2219 4294646525
