# .PCD v0.7 - Point Cloud Data file format
VERSION 0.7
FIELDS x y z rgb
SIZE 4 4 4 4
TYPE F F F U
COUNT 1 1 1 1
WIDTH 102
HEIGHT 1
VIEWPOINT 0 0 0 1 0 0 0
POINTS 102
DATA ascii
0.20125 -0.0018899 -1.13 4285834946
0.19551 0.00034627999 -1.1296999 4285834946
0.19894999 0.00034596 -1.1286 4285834946
0.20183 0.00034698 -1.1319 4285834946
0.19435 0.0014729 -1.1321 4285834946
0.19521999 0.0014685 -1.1287 4285834946
0.19751 0.0014703 -1.1301 4285834946
0.19924 0.0014696 -1.1296 4285834946
0.20096 0.001469 -1.1291 4285834946
0.19322 0.0024828 -1.1283 4285834946
0.19607 0.0024901 -1.1316 4285834946
0.19751 0.0024869 -1.1301 4285834946
0.19866 0.0024814999 -1.1277 4285834946
0.20038 0.0024804 -1.1272 4285834946
0.20209999 0.0024792 -1.1266 4285834946
0.19494 0.0037572 -1.1277 4285834946
0.1978 0.0037473999 -1.1248 4285834946
0.20096 0.0037616 -1.1291 4285834946
0.20268001 0.0037599001 -1.1285 4285834946
0.20499 0.0037644999 -1.1299 4285834946
0.20582999 0.0037531999 -1.1265 4285834946
0.18577 0.0049462998 -1.1283 4285834946
0.19322 0.0049458998 -1.1282001 4285834946
0.19494 0.0049437 -1.1277 4285834946
0.19723 0.0049498002 -1.1291 4285834946
0.19953001 0.004956 -1.1305 4285834946
0.20153999 0.0049578999 -1.131 4285834946
0.20268001 0.0049472 -1.1285 4285834946
0.20411 0.0049406998 -1.1271 4285834946
0.19178 0.0059373002 -1.1296999 4285834946
0.19322 0.0059296 -1.1282001 4285834946
0.19494 0.0059270002 -1.1277 4285834946
0.19694 0.0059293001 -1.1282001 4285834946
0.19953001 0.0059417002 -1.1305 4285834946
0.20096 0.005934 -1.1291 4285834946
0.20239 0.0059262002 -1.1276 4285834946
0.21307001 0.0059473999 -1.1316 4285834946
0.18866 0.0070624999 -1.1253999 4285834946
0.19036999 0.0070594 -1.1249 4285834946
0.19265001 0.0070682 -1.1263 4285834946
0.19494 0.0070771002 -1.1277 4285834946
0.19751 0.0070918999 -1.1301 4285834946
0.19924 0.0070886998 -1.1296 4285834946
0.20009001 0.0070674 -1.1262 4285834946
0.20181 0.0070642 -1.1257 4285834946
0.20382001 0.0070668999 -1.1260999 4285834946
0.19033 0.0081968 -1.1312 4285834946
0.19408999 0.0081511 -1.1248 4285834946
0.19637001 0.0081612999 -1.1262 4285834946
0.19866 0.0081714997 -1.1276 4285834946
0.20067 0.0081746001 -1.1281 4285834946
0.20268001 0.0081778001 -1.1285 4285834946
0.20411 0.0081671001 -1.127 4285834946
0.21164 0.0082109002 -1.1331 4285834946
0.18805 0.0092032999 -1.1296999 4285834946
0.19005001 0.0092070997 -1.1302 4285834946
0.19437 0.0091712996 -1.1258 4285834946
0.19580001 0.0091592995 -1.1243 4285834946
0.19751 0.0091551002 -1.1238 4285834946
0.20038 0.0091821002 -1.1271 4285834946
0.20239 0.0091856997 -1.1276 4285834946
0.20382001 0.0091736 -1.1260999 4285834946
0.20524 0.0091615999 -1.1246001 4285834946
0.20725 0.0091650002 -1.125 4285834946
0.21046001 0.0091995997 -1.1293 4285834946
0.18838 0.01046 -1.1244 4285834946
0.19092999 0.010482 -1.1267999 4285834946
0.19521999 0.010499 -1.1287 4285834946
0.19666 0.010486 -1.1272 4285834946
0.19837999 0.010481 -1.1267 4285834946
0.20009001 0.010476 -1.1262 4285834946
0.20123 0.010453 -1.1237 4285834946
0.20324001 0.010457 -1.1242 4285834946
0.20554 0.01047 -1.1255 4285834946
0.20784 0.010483 -1.1269 4285834946
0.18838 0.011689 -1.1244 4285834946
0.18980999 0.011674 -1.1229 4285834946
0.1938 0.011683 -1.1238 4285834946
0.19609 0.011698 -1.1253 4285834946
0.19837999 0.011712 -1.1267 4285834946
0.19952001 0.011687 -1.1242 4285834946
0.20094 0.011672 -1.1228 4285834946
0.20353 0.011696 -1.1251 4285834946
0.20554 0.011701 -1.1255 4285834946
0.18838 0.0127 -1.1244 4285834946
0.19092999 0.012727 -1.1267999 4285834946
0.19237 0.01271 -1.1253 4285834946
0.19952001 0.012698 -1.1242 4285834946
0.20181 0.012714 -1.1256 4285834946
0.20382001 0.012719 -1.126 4285834946
0.20466 0.01268 -1.1227 4285834946
0.19580001 0.013769 -1.1243 4285834946
0.20094 0.01375 -1.1227 4285834946
0.20294 0.013755 -1.1232001 4285834946
0.20466 0.013749 -1.1226 4285834946
0.20666 0.013754 -1.1231 4285834946
0.19523001 0.014833 -1.1223 4285834946
0.19809 0.014877 -1.1257 4285834946
0.19952001 0.014858 -1.1242 4285834946
0.20236 0.014819 -1.1212 4285834946
0.20725 0.014868 -1.125 4285834946
0.20466 0.015944 -1.1226 4285834946
