# .PCD v0.7 - Point Cloud Data file format
VERSION 0.7
FIELDS x y z rgb
SIZE 4 4 4 4
TYPE F F F U
COUNT 1 1 1 1
WIDTH 184
HEIGHT 1
VIEWPOINT 0 0 0 1 0 0 0
POINTS 184
DATA ascii
-0.52157998 -0.67838001 -1.196 4281610124
-0.51942998 -0.67874002 -1.1967 4281610124
-0.52752 -0.67948997 -1.1991 4281610124
-0.52503997 -0.67939001 -1.1989 4281610124
-0.52223003 -0.67883003 -1.1979001 4281610124
-0.51942998 -0.67826003 -1.1969 4281610124
-0.52471 -0.67842001 -1.1984 4281610124
-0.52223003 -0.67831999 -1.1982 4281610124
-0.52007002 -0.67868 -1.1989 4281610124
-0.52752 -0.67847002 -1.1997 4281610124
-0.52503997 -0.67837 -1.1995 4281610124
-0.52223003 -0.6778 -1.1985 4281610124
-0.52007002 -0.67817003 -1.1992 4281610124
-0.52752 -0.67793 -1.2 4281610124
-0.52471 -0.67737001 -1.199 4281610124
-0.52223003 -0.67727 -1.1988 4281610124
-0.52007002 -0.67763001 -1.1995 4281610124
-0.53034002 -0.67794001 -1.2013 4281610124
-0.52752 -0.67738998 -1.2003 4281610124
-0.52223003 -0.67672998 -1.1991 4281610124
-0.54497999 -0.67750001 -1.2016 4281610124
-0.52752 -0.67690003 -1.2006 4281610124
-0.52537 -0.67725998 -1.2012 4281610124
-0.52256 -0.6767 -1.2002 4281610124
-0.52039999 -0.67707002 -1.2009 4281610124
-0.54281998 -0.67738998 -1.2026 4281610124
-0.52687001 -0.67548001 -1.1992 4281610124
-0.52471 -0.67584997 -1.1999 4281610124
-0.5219 -0.67527997 -1.1989 4281610124
-0.54531997 -0.67686999 -1.2031 4281610124
-0.54281998 -0.67680001 -1.2029001 4281610124
-0.52752 -0.67580998 -1.2012 4281610124
-0.52471 -0.67524999 -1.2002 4281610124
-0.5219 -0.67469001 -1.1992 4281610124
-0.52569002 -0.67602998 -1.2029999 4281610124
-0.52256 -0.67501003 -1.2012 4281610124
-0.52072001 -0.67583001 -1.2027 4281610124
-0.52569002 -0.67541999 -1.2033 4281610124
-0.5219 -0.67347002 -1.1999 4281610124
-0.52007002 -0.67430001 -1.2013 4281610124
-0.54566002 -0.67550999 -1.2049 4281610124
-0.54247999 -0.67451 -1.2031 4281610124
-0.53100002 -0.67545998 -1.2048 4281610124
-0.52818 -0.67491001 -1.2039 4281610124
-0.52635002 -0.67574 -1.2053 4281610124
-0.52223003 -0.67333001 -1.201 4281610124
-0.52039999 -0.67414999 -1.2025 4281610124
-0.54531997 -0.67447001 -1.2043999 4281610124
-0.53997999 -0.67385 -1.2033 4281610124
-0.53066999 -0.67442 -1.2043 4281610124
-0.52884001 -0.67524999 -1.2058001 4281610124
-0.52537 -0.67377001 -1.2032 4281610124
-0.52320999 -0.67413998 -1.2038 4281610124
-0.52136999 -0.67496002 -1.2053 4281610124
-0.54281998 -0.67381001 -1.2046 4281610124
-0.54066002 -0.67418998 -1.2053 4281610124
-0.52569002 -0.67365003 -1.2043 4281610124
-0.52353001 -0.67401999 -1.205 4281610124
-0.52072001 -0.67346001 -1.204 4281610124
-0.54531997 -0.67317998 -1.2051001 4281610124
-0.54066002 -0.67347997 -1.2057 4281610124
-0.53882998 -0.67431003 -1.2072001 4281610124
-0.53283 -0.67276001 -1.2043999 4281610124
-0.52601999 -0.67341 -1.2056 4281610124
-0.52353001 -0.67330998 -1.2054 4281610124
-0.52104998 -0.67321002 -1.2052 4281610124
-0.54566002 -0.67290998 -1.2064 4281610124
-0.53749001 -0.67175001 -1.2043 4281610124
-0.53533 -0.67211998 -1.205 4281610124
-0.53283 -0.67203999 -1.2048 4281610124
-0.52818 -0.67230999 -1.2053 4281610124
-0.52569002 -0.67221999 -1.2051001 4281610124
-0.52353001 -0.67258 -1.2058001 4281610124
-0.52072001 -0.67202002 -1.2048 4281610124
-0.51792002 -0.67145997 -1.2038 4281610124
-0.54066002 -0.67215002 -1.2064 4281610124
-0.53849 -0.67253 -1.2071 4281610124
-0.53533 -0.67153001 -1.2053 4281610124
-0.53416002 -0.67328 -1.2084 4281610124
-0.53100002 -0.67227 -1.2066 4281610124
-0.52982998 -0.67401999 -1.2098 4281610124
-0.52601999 -0.67207998 -1.2063 4281610124
-0.52320999 -0.67153001 -1.2053 4281610124
-0.52072001 -0.67142999 -1.2051001 4281610124
-0.51855999 -0.67179 -1.2058001 4281610124
-0.53533 -0.67093003 -1.2056 4281610124
-0.53416002 -0.67268002 -1.2088 4281610124
-0.53166002 -0.67259002 -1.2086 4281610124
-0.52950001 -0.67295998 -1.2093 4281610124
-0.52635002 -0.67194998 -1.2075 4281610124
-0.52385998 -0.67185003 -1.2072999 4281610124
-0.52039999 -0.67036998 -1.2046 4281610124
-0.51855999 -0.67119002 -1.2061 4281610124
-0.5395 -0.67258 -1.2103 4281610124
-0.53632998 -0.67158002 -1.2085 4281610124
-0.53382999 -0.67149001 -1.2084 4281610124
-0.53200001 -0.67232001 -1.2098 4281610124
-0.52982998 -0.67268997 -1.2105 4281610124
-0.52667999 -0.67167997 -1.2086999 4281610124
-0.52451003 -0.67203999 -1.2093 4281610124
-0.51823997 -0.67000002 -1.2057 4281610124
-0.54031998 -0.66962999 -1.2067 4281610124
-0.53533 -0.66946 -1.2064 4281610124
-0.53250003 -0.66891998 -1.2055 4281610124
-0.53066999 -0.66974002 -1.207 4281610124
-0.52884001 -0.67057002 -1.2084 4281610124
-0.52667999 -0.67093003 -1.2091 4281610124
-0.52484 -0.67176002 -1.2106 4281610124
-0.51488 -0.67135 -1.2098 4281610124
-0.53781998 -0.66881001 -1.207 4281610124
-0.53599 -0.66964 -1.2085 4281610124
-0.53382999 -0.67000997 -1.2092 4281610124
-0.53066999 -0.66900998 -1.2074 4281610124
-0.52884001 -0.66983002 -1.2088 4281610124
-0.52635002 -0.66974002 -1.2086999 4281610124
-0.52484 -0.67101997 -1.211 4281610124
-0.53916001 -0.6699 -1.2107 4281610124
-0.537 -0.67027003 -1.2114 4281610124
-0.53482997 -0.67063999 -1.2121 4281610124
-0.53232998 -0.67056 -1.2119 4281610124
-0.53016001 -0.67092001 -1.2126 4281610124
-0.52667999 -0.66946 -1.2099 4281610124
-0.52516001 -0.67072999 -1.2122 4281610124
-0.53983003 -0.67009997 -1.2128 4281610124
-0.537 -0.66956002 -1.2118 4281610124
-0.53416002 -0.66902 -1.2108001 4281610124
-0.53232998 -0.66984999 -1.2122999 4281610124
-0.52950001 -0.66930002 -1.2113 4281610124
-0.52484 -0.66957003 -1.2118 4281610124
-0.53983003 -0.66939998 -1.2131 4281610124
-0.537 -0.66886002 -1.2122 4281610124
-0.53482997 -0.66922998 -1.2128 4281610124
-0.53232998 -0.66913998 -1.2127 4281610124
-0.52950001 -0.66859001 -1.2117 4281610124
-0.54051 -0.66952002 -1.2151999 4281610124
-0.53766 -0.66898 -1.2143 4281610124
-0.53516001 -0.66889 -1.2141 4281610124
-0.53232998 -0.66834998 -1.2131 4281610124
-0.53016001 -0.66872001 -1.2138 4281610124
-0.52766001 -0.66863 -1.2136 4281610124
-0.542 -0.66745001 -1.2133 4281610124
-0.54084003 -0.66917998 -1.2165 4281610124
-0.53867 -0.66955 -1.2172 4281610124
-0.53649002 -0.66992998 -1.2178 4281610124
-0.53232998 -0.66755998 -1.2135 4281610124
-0.53016001 -0.66793001 -1.2142 4281610124
-0.52766001 -0.66784 -1.214 4281610124
-0.54334998 -0.66854 -1.217 4281610124
-0.54084003 -0.66846001 -1.2169 4281610124
-0.53867 -0.66882998 -1.2176 4281610124
-0.53582001 -0.66829002 -1.2165999 4281610124
-0.53332001 -0.66821003 -1.2164 4281610124
-0.53016001 -0.66720998 -1.2146 4281610124
-0.52766001 -0.66711998 -1.2144001 4281610124
-0.52679002 -0.66930002 -1.2184 4281610124
-0.52266997 -0.66693002 -1.2141 4281610124
-0.54334998 -0.66781998 -1.2174 4281610124
-0.54017001 -0.66683 -1.2156 4281610124
-0.53799999 -0.66720003 -1.2163 4281610124
-0.53582001 -0.66756999 -1.217 4281610124
-0.53332001 -0.66747999 -1.2168 4281610124
-0.53114003 -0.66785002 -1.2175 4281610124
-0.52700001 -0.66548997 -1.2132 4281610124
-0.52613997 -0.66767001 -1.2172 4281610124
-0.54084003 -0.66684002 -1.2178 4281610124
-0.53833002 -0.66676003 -1.2176 4281610124
-0.53582001 -0.66667998 -1.2175 4281610124
-0.53298998 -0.66614002 -1.2165 4281610124
-0.53081 -0.66649997 -1.2172 4281610124
-0.52798003 -0.66596001 -1.2162 4281610124
-0.52645999 -0.66722 -1.2185 4281610124
-0.54184997 -0.66728002 -1.2208 4281610124
-0.53899997 -0.66675001 -1.2198 4281610124
-0.53582001 -0.66575998 -1.2180001 4281610124
-0.53332001 -0.66567999 -1.2178 4281610124
-0.52897 -0.66640002 -1.2191 4281610124
-0.52679002 -0.66676003 -1.2198 4281610124
-0.54000002 -0.66732001 -1.2227 4281610124
-0.53615999 -0.66543001 -1.2192 4281610124
-0.53899997 -0.66518003 -1.2206 4281610124
-0.54150999 -0.66435999 -1.2213 4281610124
-0.53899997 -0.66428 -1.2211 4281610124
-0.53615999 -0.66373998 -1.2201 4281610124
-0.53933001 -0.66381001 -1.2225 4281610124
