# .PCD v0.7 - Point Cloud Data file format
VERSION 0.7
FIELDS x y z rgb
SIZE 4 4 4 4
TYPE F F F U
COUNT 1 1 1 1
WIDTH 205
HEIGHT 1
VIEWPOINT 0 0 0 1 0 0 0
POINTS 205
DATA ascii
0.12772 -0.68562001 -1.1963 4280424450
0.12915 -0.68146002 -1.1937 4280424450
0.13112 -0.68077999 -1.1925 4280424450
0.12556 -0.68256998 -1.1985 4280424450
0.12772 -0.68238002 -1.1981 4280424450
0.13042 -0.68365002 -1.2003 4280424450
0.13258 -0.68344998 -1.2 4280424450
0.12572999 -0.68265998 -1.1995 4280424450
0.12772 -0.68198001 -1.1984 4280424450
0.13060001 -0.68373001 -1.2014 4280424450
0.12158 -0.68312001 -1.2013 4280424450
0.12357 -0.68243998 -1.2000999 4280424450
0.1279 -0.68206 -1.1993999 4280424450
0.13023999 -0.68234998 -1.2 4280424450
0.13221 -0.68167001 -1.1988 4280424450
0.13382 -0.68001002 -1.1957999 4280424450
0.12357 -0.68202001 -1.2004 4280424450
0.12591 -0.68232 -1.2009 4280424450
0.12807 -0.68212003 -1.2005 4280424450
0.13006 -0.68144 -1.1993001 4280424450
0.11873 -0.68052 -1.1987 4280424450
0.12357 -0.68159997 -1.2006 4280424450
0.12591 -0.68190002 -1.2011 4280424450
0.12807 -0.68169999 -1.2007999 4280424450
0.13042 -0.68199003 -1.2013 4280424450
0.13456 -0.68111002 -1.1997 4280424450
0.13709 -0.68188 -1.2011 4280424450
0.11942 -0.68199003 -1.2024 4280424450
0.12375 -0.68160999 -1.2017 4280424450
0.12591 -0.68142003 -1.2014 4280424450
0.1279 -0.68074 -1.2002 4280424450
0.13293999 -0.68229002 -1.2029001 4280424450
0.13764 -0.68286002 -1.2039 4280424450
0.13925 -0.68120003 -1.201 4280424450
0.14198001 -0.68245 -1.2032 4280424450
0.11959 -0.68199003 -1.2035 4280424450
0.12176 -0.68180001 -1.2032 4280424450
0.1241 -0.6821 -1.2036999 4280424450
0.12825 -0.68123001 -1.2022001 4280424450
0.13313 -0.68229002 -1.204 4280424450
0.13492 -0.68111998 -1.202 4280424450
0.13925 -0.68071997 -1.2013 4280424450
0.11959 -0.68147999 -1.2038 4280424450
0.12176 -0.68128997 -1.2035 4280424450
0.1241 -0.68159002 -1.204 4280424450
0.12627 -0.68138999 -1.2036999 4280424450
0.12861 -0.68168998 -1.2042 4280424450
0.13078 -0.68149 -1.2038 4280424450
0.13293999 -0.68128997 -1.2035 4280424450
0.13474 -0.68013 -1.2014 4280424450
0.13944 -0.68068999 -1.2024 4280424450
0.14198001 -0.68146002 -1.2038 4280424450
0.11959 -0.68096 -1.2041 4280424450
0.12176 -0.68076998 -1.2038 4280424450
0.12392 -0.68058002 -1.2034 4280424450
0.12609001 -0.68039 -1.2031 4280424450
0.12879001 -0.68164998 -1.2053 4280424450
0.13078 -0.68098003 -1.2041 4280424450
0.13276 -0.68028998 -1.2029001 4280424450
0.13745999 -0.68085998 -1.2039 4280424450
0.13962001 -0.68066001 -1.2036 4280424450
0.14198001 -0.68093997 -1.2041 4280424450
0.14650001 -0.68101001 -1.2042 4280424450
0.11942 -0.67993999 -1.2035 4280424450
0.12176 -0.68023002 -1.2041 4280424450
0.12392 -0.68004 -1.2036999 4280424450
0.12627 -0.68033999 -1.2043 4280424450
0.12879001 -0.68111002 -1.2056 4280424450
0.13096 -0.68092 -1.2053 4280424450
0.13313 -0.68071997 -1.2049 4280424450
0.13981 -0.68059999 -1.2047 4280424450
0.14273 -0.68233001 -1.2078 4280424450
0.14669 -0.68094999 -1.2053 4280424450
0.11925 -0.67891002 -1.2029999 4280424450
0.12176 -0.67969 -1.2043999 4280424450
0.12357 -0.67852998 -1.2023 4280424450
0.12627 -0.67979002 -1.2046 4280424450
0.12879001 -0.68057001 -1.2059 4280424450
0.13132 -0.68133998 -1.2072999 4280424450
0.13529 -0.67997998 -1.2049 4280424450
0.13745999 -0.67978001 -1.2045 4280424450
0.13962001 -0.67957997 -1.2042 4280424450
0.14179 -0.67936999 -1.2038 4280424450
0.14591999 -0.67848003 -1.2022001 4280424450
0.11925 -0.67842001 -1.2033 4280424450
0.12158 -0.67872 -1.2038 4280424450
0.12392 -0.67900997 -1.2043 4280424450
0.12644 -0.67979002 -1.2057 4280424450
0.12932999 -0.68153 -1.2088 4280424450
0.13096 -0.67988002 -1.2059 4280424450
0.13293999 -0.67919999 -1.2047 4280424450
0.13492 -0.67852002 -1.2035 4280424450
0.13745999 -0.67929 -1.2048 4280424450
0.13962001 -0.67909002 -1.2045 4280424450
0.14179 -0.67887998 -1.2041 4280424450
0.14433999 -0.67964 -1.2054 4280424450
0.14689 -0.68040001 -1.2068 4280424450
0.14906 -0.68019003 -1.2064 4280424450
0.15123001 -0.67997998 -1.206 4280424450
0.11726 -0.67860001 -1.2047 4280424450
0.11942 -0.67840999 -1.2043999 4280424450
0.12158 -0.67821997 -1.2041 4280424450
0.12392 -0.67852002 -1.2046 4280424450
0.12609001 -0.67833 -1.2043 4280424450
0.12879001 -0.67958999 -1.2065001 4280424450
0.13042 -0.67794001 -1.2036 4280424450
0.13349 -0.68015999 -1.2075 4280424450
0.13456 -0.67707002 -1.202 4280424450
0.13801999 -0.68023998 -1.2077 4280424450
0.14037 -0.68052 -1.2082 4280424450
0.14255001 -0.68032002 -1.2078 4280424450
0.14472 -0.68010998 -1.2074 4280424450
0.14669 -0.67941999 -1.2062 4280424450
0.14885999 -0.67921001 -1.2058001 4280424450
0.15103 -0.67900002 -1.2055 4280424450
0.11942 -0.67781001 -1.2047 4280424450
0.12375 -0.67743999 -1.2041 4280424450
0.12627 -0.67821002 -1.2055 4280424450
0.12879001 -0.67899001 -1.2068 4280424450
0.13078 -0.67830998 -1.2056 4280424450
0.13331001 -0.67908001 -1.207 4280424450
0.13603 -0.68032998 -1.2092 4280424450
0.1382 -0.68013 -1.2089 4280424450
0.14019001 -0.67944002 -1.2076 4280424450
0.14236 -0.67923999 -1.2072999 4280424450
0.14453 -0.67903 -1.2069 4280424450
0.14689 -0.67931002 -1.2074 4280424450
0.12392 -0.67730999 -1.2053 4280424450
0.12627 -0.67760003 -1.2058001 4280424450
0.12842999 -0.67741001 -1.2055 4280424450
0.13096 -0.67817998 -1.2068 4280424450
0.13529 -0.67778999 -1.2061 4280424450
0.13764 -0.67807001 -1.2066 4280424450
0.14056 -0.67979002 -1.2097 4280424450
0.14217 -0.67815 -1.2068 4280424450
0.14453 -0.67842001 -1.2072999 4280424450
0.14650001 -0.67773002 -1.206 4280424450
0.14885999 -0.67799997 -1.2065001 4280424450
0.12879001 -0.67776 -1.2075 4280424450
0.13150001 -0.67900997 -1.2097 4280424450
0.13331001 -0.67786002 -1.2077 4280424450
0.13565999 -0.67813998 -1.2082 4280424450
0.14 -0.67773998 -1.2075 4280424450
0.14217 -0.67754 -1.2071 4280424450
0.14453 -0.67781001 -1.2076 4280424450
0.14650001 -0.67711997 -1.2064 4280424450
0.14906 -0.67786998 -1.2077 4280424450
0.1268 -0.67782998 -1.2091 4280424450
0.12915 -0.67812002 -1.2096 4280424450
0.13150001 -0.67839998 -1.2101001 4280424450
0.13783 -0.67733002 -1.2082 4280424450
0.14056 -0.67856997 -1.2104 4280424450
0.14255001 -0.67787999 -1.2092 4280424450
0.14689 -0.67747003 -1.2084 4280424450
0.14885999 -0.67677999 -1.2072001 4280424450
0.1268 -0.67724001 -1.2094001 4280424450
0.12915 -0.67752999 -1.2099 4280424450
0.13150001 -0.67782003 -1.2104 4280424450
0.13367 -0.67761999 -1.2101001 4280424450
0.1364 -0.67887002 -1.2122999 4280424450
0.13801999 -0.67723 -1.2094001 4280424450
0.14311001 -0.67874002 -1.2121 4280424450
0.14529 -0.67853999 -1.2117 4280424450
0.14650001 -0.67593002 -1.207 4280424450
0.14885999 -0.67619997 -1.2075 4280424450
0.1295 -0.67790997 -1.2119 4280424450
0.13168 -0.67772001 -1.2115999 4280424450
0.13404 -0.67799997 -1.2121 4280424450
0.1364 -0.67828 -1.2126 4280424450
0.13857 -0.67808002 -1.2122999 4280424450
0.1433 -0.67864001 -1.2132 4280424450
0.14490999 -0.67698997 -1.2103 4280424450
0.14669 -0.67583001 -1.2082 4280424450
0.12715 -0.67690998 -1.2118 4280424450
0.12932999 -0.67672002 -1.2115 4280424450
0.13150001 -0.67651999 -1.2111 4280424450
0.13384999 -0.67681003 -1.2115999 4280424450
0.13584 -0.67613 -1.2104 4280424450
0.13839 -0.67689002 -1.2118 4280424450
0.14075001 -0.67716998 -1.2122999 4280424450
0.14311001 -0.67743999 -1.2128 4280424450
0.1451 -0.67676002 -1.2115999 4280424450
0.14726999 -0.67654997 -1.2112 4280424450
0.1268 -0.67522001 -1.2105 4280424450
0.12986 -0.67742997 -1.2145 4280424450
0.13367 -0.67559999 -1.2112 4280424450
0.13839 -0.67615998 -1.2122 4280424450
0.14019001 -0.67500001 -1.2101001 4280424450
0.1451 -0.67602998 -1.212 4280424450
0.1268 -0.67461997 -1.2108999 4280424450
0.12986 -0.67682999 -1.2148 4280424450
0.13168 -0.67567003 -1.2127 4280424450
0.13477001 -0.67786998 -1.2167 4280424450
0.1364 -0.67624003 -1.2138 4280424450
0.12733001 -0.67545998 -1.2138 4280424450
0.1295 -0.67527002 -1.2134 4280424450
0.13168 -0.67506999 -1.2131 4280424450
0.13384999 -0.67488003 -1.2127 4280424450
0.1295 -0.67453998 -1.2138 4280424450
0.13222 -0.67578 -1.2161 4280424450
0.13422 -0.67510003 -1.2148 4280424450
0.12932999 -0.67330998 -1.2134 4280424450
0.13186 -0.67407 -1.2148 4280424450
0.12915 -0.67208999 -1.2129 4280424450
0.13203999 -0.67381001 -1.216 4280424450
