# .PCD v0.7 - Point Cloud Data file format
VERSION 0.7
FIELDS x y z rgb
SIZE 4 4 4 4
TYPE F F F U
COUNT 1 1 1 1
WIDTH 65
HEIGHT 1
VIEWPOINT 0 0 0 1 0 0 0
POINTS 65
DATA ascii
0.24102999 -0.0064778998 -1.1351 4278449186
0.24350999 -0.006455 -1.1311001 4278449186
0.26482999 -0.0064845998 -1.1363 4278449186
0.24372999 -0.0053539998 -1.1373 4278449186
0.24547 -0.0053511998 -1.1368001 4278449186
0.25025001 -0.0053633 -1.1393 4278449186
0.25132999 -0.0053515998 -1.1368001 4278449186
0.2534 -0.0053531001 -1.1372 4278449186
0.25854999 -0.0053694998 -1.1406 4278449186
0.26517001 -0.0053532999 -1.1372 4278449186
0.24308001 -0.0041805999 -1.1355 4278449186
0.24482 -0.0041784998 -1.1349 4278449186
0.24654999 -0.0041761999 -1.1343 4278449186
0.24894001 -0.0041809999 -1.1356 4278449186
0.25274 -0.0041800002 -1.1353 4278449186
0.25687 -0.0041824002 -1.1359 4278449186
0.25894001 -0.0041836002 -1.1363 4278449186
0.26067999 -0.0041812998 -1.1356 4278449186
0.26309001 -0.0041859001 -1.1368999 4278449186
0.26517001 -0.0041871001 -1.1372 4278449186
0.24244 -0.0030288999 -1.1336 4278449186
0.24482 -0.0030322999 -1.1349 4278449186
0.24654999 -0.0030306999 -1.1343 4278449186
0.24992 -0.0030418001 -1.1384 4278449186
0.25034001 -0.00303 -1.1339999 4278449186
0.25240001 -0.0030308999 -1.1343 4278449186
0.25413001 -0.0030292999 -1.1337 4278449186
0.25619999 -0.0030302 -1.1341 4278449186
0.25861001 -0.0030336 -1.1353 4278449186
0.24102999 -0.0018984 -1.1351 4278449186
0.24244 -0.0018959 -1.1336 4278449186
0.24449 -0.0018965 -1.1339 4278449186
0.2472 -0.0019002 -1.1362 4278449186
0.24992 -0.0019038999 -1.1384 4278449186
0.25066999 -0.0018982 -1.135 4278449186
0.25240001 -0.0018972 -1.1343 4278449186
0.25479999 -0.0018993 -1.1356 4278449186
0.25687 -0.0018998 -1.1359 4278449186
0.25861001 -0.0018988 -1.1353 4278449186
0.23724 -0.00088463997 -1.1353 4278449186
0.24179 -0.00088179001 -1.1317 4278449186
0.24449 -0.00088354002 -1.1339 4278449186
0.24654999 -0.00088380999 -1.1343 4278449186
0.25514001 -0.00088559999 -1.1366 4278449186
0.2366 0.00034743999 -1.1334 4278449186
0.24113999 0.00034632001 -1.1298 4278449186
0.24514 0.00034816001 -1.1358 4278449186
0.24687999 0.00034798001 -1.1352 4278449186
0.24795 0.00034721999 -1.1327 4278449186
0.25413001 0.00034753 -1.1337 4278449186
0.25619999 0.00034763 -1.1341 4278449186
0.24211 0.0014736 -1.1325999 4278449186
0.24654999 0.0014756999 -1.1343 4278449186
0.2538 0.0014738 -1.1328 4278449186
0.24179 0.0024903 -1.1317 4278449186
0.24654999 0.0024959999 -1.1343 4278449186
0.24049 0.0037577001 -1.1279 4278449186
0.24589001 0.0037726001 -1.1324 4278449186
0.25419 0.0037594 -1.1284 4278449186
0.24113999 0.0049526999 -1.1298 4278449186
0.24524 0.0049557001 -1.1305 4278449186
0.25452 0.0049506999 -1.1293 4278449186
0.24082001 0.0059328 -1.1288 4278449186
0.24524 0.0059413998 -1.1305 4278449186
0.24557 0.0071002999 -1.1314 4278449186
