# .PCD v0.7 - Point Cloud Data file format
VERSION 0.7
FIELDS x y z rgb
SIZE 4 4 4 4
TYPE F F F U
COUNT 1 1 1 1
WIDTH 53
HEIGHT 1
VIEWPOINT 0 0 0 1 0 0 0
POINTS 53
DATA ascii
-0.85408002 -0.65209001 -1.1336 4284529209
-0.85026997 -0.64916003 -1.1285 4284529209
-0.86540002 -0.65853 -1.1447999 4284529209
-0.85571998 -0.65333998 -1.1358 4284529209
-0.86049002 -0.65477002 -1.1382999 4284529209
-0.86431003 -0.65768999 -1.1434 4284529209
-0.85299999 -0.65125 -1.1322 4284529209
-0.86212999 -0.65601999 -1.1404999 4284529209
-0.85354 -0.65166998 -1.1329 4284529209
-0.85136002 -0.64999002 -1.13 4284529209
-0.86486 -0.65811002 -1.1441 4284529209
-0.86388999 -0.65960997 -1.1467 4284529209
-0.85082 -0.64958 -1.1293 4284529209
-0.85680997 -0.65417999 -1.1373 4284529209
-0.85829997 -0.65310001 -1.1354001 4284529209
-0.85517001 -0.65292001 -1.1351 4284529209
-0.86321998 -0.65685999 -1.1418999 4284529209
-0.86224997 -0.65836 -1.1445 4284529209
-0.84864002 -0.64789999 -1.1264 4284529209
-0.85245001 -0.65082997 -1.1315 4284529209
-0.86594999 -0.65894002 -1.1456 4284529209
-0.85734999 -0.65459001 -1.138 4284529209
-0.84210002 -0.64288998 -1.1176 4284529209
-0.85557002 -0.65151 -1.1315 4284529209
-0.86321998 -0.65741998 -1.1416 4284529209
-0.84645998 -0.64678001 -1.1231 4284529209
-0.85448003 -0.65073001 -1.13 4284529209
-0.85299999 -0.65192002 -1.1318001 4284529209
-0.86267 -0.65741998 -1.1406 4284529209
-0.84156001 -0.64342999 -1.1164 4284529209
-0.86267 -0.65754998 -1.1406 4284529209
-0.84500998 -0.64216 -1.1131001 4284529209
-0.84301001 -0.64280999 -1.1142 4284529209
-0.86431003 -0.65930003 -1.1424 4284529209
-0.85705 -0.6516 -1.1289001 4284529209
-0.85503 -0.65226001 -1.1301 4284529209
-0.84117001 -0.63954002 -1.1079 4284529209
-0.83919001 -0.64019001 -1.109 4284529209
-0.86267 -0.65820998 -1.1402 4284529209
-0.85979003 -0.65377998 -1.1325001 4284529209
-0.85776001 -0.65445 -1.1336 4284529209
-0.85720998 -0.65406001 -1.1329 4284529209
-0.84773999 -0.64458001 -1.1166 4284529209
-0.84574002 -0.64523 -1.1177 4284529209
-0.84390998 -0.64151001 -1.1116 4284529209
-0.84192002 -0.64216 -1.1127 4284529209
-0.86486 -0.65969002 -1.1432 4284529209
-0.85119998 -0.6487 -1.1253999 4284529209
-0.84864002 -0.64894003 -1.1258 4284529209
-0.86212999 -0.65661001 -1.1401 4284529209
-0.83502001 -0.63802999 -1.1079 4284529209
-0.86431003 -0.65811998 -1.1431 4284529209
-0.85448003 -0.64994001 -1.1303999 4284529209
