# .PCD v0.7 - Point Cloud Data file format
VERSION 0.7
FIELDS x y z rgb
SIZE 4 4 4 4
TYPE F F F U
COUNT 1 1 1 1
WIDTH 72
HEIGHT 1
VIEWPOINT 0 0 0 1 0 0 0
POINTS 72
DATA ascii
-0.51637 -0.0082905004 -1.0839 4281030083
-0.50114 -0.0073684999 -1.0894001 4281030083
-0.49132001 -0.0073672002 -1.0892 4281030083
-0.51429999 -0.0062098 -1.0881 4281030083
-0.49665999 -0.0062096999 -1.0881 4281030083
-0.49462 -0.0062083998 -1.0879 4281030083
-0.49296999 -0.0062123998 -1.0886 4281030083
-0.49169999 -0.0062215999 -1.0901999 4281030083
-0.51349002 -0.0051135998 -1.0863 4281030083
-0.51103997 -0.0051083998 -1.0852 4281030083
-0.50357997 -0.0051338999 -1.0906 4281030083
-0.50114 -0.0051286002 -1.0895 4281030083
-0.49869999 -0.0051231999 -1.0883 4281030083
-0.49627 -0.0051178001 -1.0872 4281030083
-0.49540001 -0.0051298002 -1.0897 4281030083
-0.49335 -0.0051286998 -1.0895 4281030083
-0.49169999 -0.005132 -1.0901999 4281030083
-0.49004999 -0.0051352 -1.0908999 4281030083
-0.51514 -0.0039968998 -1.0856 4281030083
-0.51267999 -0.0039928998 -1.0845 4281030083
-0.51063001 -0.0039920998 -1.0843 4281030083
-0.50939 -0.0039981999 -1.0858999 4281030083
-0.50689 -0.0040102 -1.0892 4281030083
-0.50405002 -0.0040027001 -1.0871 4281030083
-0.50120997 -0.0039952002 -1.0851001 4281030083
-0.49917001 -0.0039944001 -1.0849 4281030083
-0.49753001 -0.0039968998 -1.0856 4281030083
-0.49627 -0.0040028999 -1.0872 4281030083
-0.49423 -0.0040020999 -1.087 4281030083
-0.49258 -0.0040046 -1.0877 4281030083
-0.49092999 -0.0040071001 -1.0883 4281030083
-0.51143998 -0.002902 -1.0861 4281030083
-0.50979 -0.002904 -1.0868 4281030083
-0.50774002 -0.0029034 -1.0865999 4281030083
-0.50608999 -0.0029052999 -1.0872999 4281030083
-0.50325 -0.0028999001 -1.0853 4281030083
-0.50081998 -0.0028969001 -1.0842 4281030083
-0.49996001 -0.0029037001 -1.0867 4281030083
-0.49831 -0.0029054999 -1.0874 4281030083
-0.49549001 -0.0029 -1.0853 4281030083
-0.49346 -0.0028994 -1.0851001 4281030083
-0.49219999 -0.0029037001 -1.0867 4281030083
-0.50818998 -0.0018116001 -1.0832 4281030083
-0.50694001 -0.0018143 -1.0848 4281030083
-0.50648999 -0.0018201 -1.0883 4281030083
-0.50365001 -0.0018167 -1.0862 4281030083
-0.50160998 -0.0018163 -1.086 4281030083
-0.49957001 -0.001816 -1.0858001 4281030083
-0.49831 -0.0018187 -1.0874 4281030083
-0.49627 -0.0018183 -1.0872 4281030083
-0.49423 -0.0018179 -1.087 4281030083
-0.49219999 -0.0018175 -1.0867 4281030083
-0.50779003 -0.00084326998 -1.0822001 4281030083
-0.50529999 -0.00084580999 -1.0855 4281030083
-0.50325 -0.00084564998 -1.0853 4281030083
-0.50081998 -0.00084476999 -1.0842 4281030083
-0.49838999 -0.00084388 -1.0829999 4281030083
-0.49675 -0.00084443 -1.0836999 4281030083
-0.49549001 -0.00084569003 -1.0854 4281030083
-0.49462 -0.00084767002 -1.0879 4281030083
-0.49219999 -0.00084677001 -1.0867 4281030083
-0.50286001 0.0003324 -1.0844001 4281030083
-0.50081998 0.00033233 -1.0842 4281030083
-0.49917001 0.00033255 -1.0849 4281030083
-0.49636 0.00033191999 -1.0828 4281030083
-0.49509999 0.00033241001 -1.0844001 4281030083
-0.49268001 0.00033206001 -1.0833 4281030083
-0.49917001 0.0014115 -1.0849 4281030083
-0.49792001 0.0014136001 -1.0865 4281030083
-0.49588001 0.0014133001 -1.0863 4281030083
-0.49753001 0.0023888999 -1.0856 4281030083
-0.49471 0.0023843001 -1.0835 4281030083
