# .PCD v0.7 - Point Cloud Data file format
VERSION 0.7
FIELDS x y z rgb
SIZE 4 4 4 4
TYPE F F F U
COUNT 1 1 1 1
WIDTH 56
HEIGHT 1
VIEWPOINT 0 0 0 1 0 0 0
POINTS 56
DATA ascii
-0.55456001 -0.67080998 -1.2124 4279663337
-0.55421001 -0.66964 -1.2119 4279663337
-0.55489999 -0.66983998 -1.214 4279663337
-0.55421001 -0.66815001 -1.2127 4279663337
-0.55672997 -0.66742998 -1.2133 4279663337
-0.55489999 -0.66826999 -1.2148 4279663337
-0.55308002 -0.66909999 -1.2163 4279663337
-0.55089998 -0.66948998 -1.217 4279663337
-0.55672997 -0.66671002 -1.2137001 4279663337
-0.55524999 -0.66799998 -1.216 4279663337
-0.55342001 -0.66882998 -1.2176 4279663337
-0.55124003 -0.66921997 -1.2183 4279663337
-0.55672997 -0.66599 -1.2141 4279663337
-0.55456001 -0.66636997 -1.2148 4279663337
-0.55308002 -0.66766 -1.2171 4279663337
-0.55089998 -0.66803998 -1.2178 4279663337
-0.55846 -0.66734999 -1.2187001 4279663337
-0.55628997 -0.66772997 -1.2194 4279663337
-0.55342001 -0.66720998 -1.2185 4279663337
-0.55089998 -0.66714001 -1.2183 4279663337
-0.55993998 -0.66513997 -1.2168 4279663337
-0.55812001 -0.66597998 -1.2184 4279663337
-0.55593997 -0.66636997 -1.2191 4279663337
-0.55375999 -0.66675001 -1.2198 4279663337
-0.56063998 -0.66526002 -1.2189 4279663337
-0.55812001 -0.6652 -1.2187999 4279663337
-0.55524999 -0.66468 -1.2179 4279663337
-0.55238998 -0.66416001 -1.2169 4279663337
-0.56028998 -0.66403002 -1.2185 4279663337
-0.55777001 -0.66395998 -1.2184 4279663337
-0.55524999 -0.66390002 -1.2183 4279663337
-0.55444998 -0.66608 -1.2223001 4279663337
-0.56422001 -0.66496998 -1.2224 4279663337
-0.56063998 -0.66356999 -1.2198 4279663337
-0.55846 -0.66395998 -1.2205 4279663337
-0.55698001 -0.66523999 -1.2229 4279663337
-0.55444998 -0.66517001 -1.2228 4279663337
-0.56387001 -0.66360998 -1.2221 4279663337
-0.56133997 -0.66355002 -1.222 4279663337
-0.55915999 -0.66394001 -1.2227 4279663337
-0.55698001 -0.66431999 -1.2234 4279663337
-0.55479002 -0.66469997 -1.2241 4279663337
-0.56928003 -0.66329002 -1.2236 4279663337
-0.56674999 -0.66324002 -1.2235 4279663337
-0.56492001 -0.66408002 -1.225 4279663337
-0.56203002 -0.66356999 -1.2241 4279663337
-0.55984998 -0.66395998 -1.2248 4279663337
-0.55698001 -0.66345 -1.2239 4279663337
-0.55479002 -0.66382998 -1.2246 4279663337
-0.56892997 -0.66197002 -1.2232 4279663337
-0.56639999 -0.66192001 -1.2230999 4279663337
-0.56457001 -0.66275001 -1.2247 4279663337
-0.55548 -0.66385001 -1.2266999 4279663337
-0.56892997 -0.66104001 -1.2237 4279663337
-0.56639999 -0.66097999 -1.2236 4279663337
-0.56422001 -0.66136998 -1.2244 4279663337
