# .PCD v0.7 - Point Cloud Data file format
VERSION 0.7
FIELDS x y z rgb
SIZE 4 4 4 4
TYPE F F F U
COUNT 1 1 1 1
WIDTH 1196
HEIGHT 1
VIEWPOINT 0 0 0 1 0 0 0
POINTS 1196
DATA ascii
0.37737 -0.0019086 -1.1411999 4284682060
0.28463 -0.00088542001 -1.1363 4284682060
0.28672999 -0.00088563003 -1.1366 4284682060
0.28845999 -0.00088511 -1.1359 4284682060
0.2902 -0.00088458002 -1.1353 4284682060
0.29266 -0.00088549999 -1.1364 4284682060
0.29438999 -0.00088497001 -1.1358 4284682060
0.32438999 -0.00088806002 -1.1397001 4284682060
0.32574001 -0.00088677002 -1.1381 4284682060
0.32668999 -0.00088476 -1.1355 4284682060
0.32960999 -0.00088632997 -1.1375 4284682060
0.33331999 -0.00088931998 -1.1414 4284682060
0.33427 -0.00088731002 -1.1388 4284682060
0.33601001 -0.00088672002 -1.138 4284682060
0.33774999 -0.00088612997 -1.1373 4284682060
0.34068999 -0.00088767998 -1.1392 4284682060
0.34336001 -0.00088506 -1.1359 4284682060
0.36695001 -0.00088955002 -1.1416 4284682060
0.36827001 -0.00088821998 -1.1399 4284682060
0.37086001 -0.00088899001 -1.1409 4284682060
0.37259999 -0.00088836002 -1.1401 4284682060
0.37391999 -0.00088701001 -1.1384 4284682060
0.37566 -0.00088637002 -1.1375999 4284682060
0.37781999 -0.00088642997 -1.1375999 4284682060
0.38086 -0.00088789 -1.1395 4284682060
0.38260001 -0.00088723999 -1.1387 4284682060
0.39262 -0.00088950997 -1.1416 4284682060
0.28463 0.00034833001 -1.1363 4284682060
0.28709 0.00034869 -1.1375 4284682060
0.28882 0.00034848999 -1.1368999 4284682060
0.2902 0.00034798999 -1.1353 4284682060
0.29266 0.00034835999 -1.1364 4284682060
0.29576001 0.00034765 -1.1342 4284682060
0.29749 0.00034743999 -1.1335 4284682060
0.30763999 0.00034751001 -1.1337 4284682060
0.31013 0.00034786001 -1.1348 4284682060
0.31474 0.00034827 -1.1362 4284682060
0.31608999 0.00034776999 -1.1345 4284682060
0.31819999 0.00034783001 -1.1346999 4284682060
0.32148999 0.00034874 -1.1377 4284682060
0.32438999 0.00034935999 -1.1397001 4284682060
0.32613 0.00034914 -1.1390001 4284682060
0.32787001 0.00034890999 -1.1382 4284682060
0.32921001 0.0003484 -1.1366 4284682060
0.33173999 0.00034873001 -1.1377 4284682060
0.33348 0.00034850001 -1.1368999 4284682060
0.33561 0.00034855001 -1.1371 4284682060
0.33735001 0.00034832 -1.1363 4284682060
0.33989 0.00034865001 -1.1374 4284682060
0.34162 0.00034842 -1.1366 4284682060
0.34417 0.00034874 -1.1377 4284682060
0.36695001 0.00034994999 -1.1416 4284682060
0.37086001 0.00034972999 -1.1409 4284682060
0.37175 0.00034892 -1.1382999 4284682060
0.37476999 0.00034950001 -1.1402 4284682060
0.37608001 0.00034897 -1.1385 4284682060
0.37867999 0.00034927001 -1.1394 4284682060
0.38042 0.00034902 -1.1386 4284682060
0.38303 0.00034932001 -1.1396 4284682060
0.38564 0.00034961 -1.1404999 4284682060
0.38782001 0.00034962999 -1.1406 4284682060
0.38956001 0.00034937001 -1.1397001 4284682060
0.39218 0.00034966 -1.1407 4284682060
0.39392 0.00034940001 -1.1398 4284682060
0.28463 0.0014784 -1.1363 4284682060
0.2881 0.0014767 -1.135 4284682060
0.2902 0.001477 -1.1353 4284682060
0.29302001 0.0014798 -1.1374 4284682060
0.29576001 0.0014755999 -1.1342 4284682060
0.29749 0.0014747001 -1.1335 4284682060
0.30590999 0.0014758999 -1.1344 4284682060
0.30763999 0.0014750001 -1.1337 4284682060
0.30974999 0.0014752001 -1.1339 4284682060
0.31186 0.0014754999 -1.1341 4284682060
0.31397 0.0014757999 -1.1343 4284682060
0.31608999 0.0014760999 -1.1345 4284682060
0.31858999 0.0014775 -1.1357 4284682060
0.32322001 0.0014792 -1.137 4284682060
0.32457 0.0014771 -1.1353 4284682060
0.32709 0.0014785 -1.1364 4284682060
0.33039999 0.0014823 -1.1393 4284682060
0.33214 0.0014814 -1.1386 4284682060
0.33467001 0.0014828 -1.1397001 4284682060
0.33680999 0.001483 -1.1398 4284682060
0.33895001 0.0014832 -1.14 4284682060
0.33989 0.0014798 -1.1374 4284682060
0.34457001 0.0014814 -1.1386 4284682060
0.35622999 0.0014788 -1.1367 4284682060
0.36954001 0.0014866 -1.1426001 4284682060
0.37129 0.0014856 -1.1418 4284682060
0.37303001 0.0014845 -1.141 4284682060
0.3752 0.0014846 -1.1411 4284682060
0.37823001 0.0014871 -1.143 4284682060
0.37998 0.001486 -1.1421 4284682060
0.38172001 0.0014849 -1.1413 4284682060
0.38389999 0.001485 -1.1414 4284682060
0.38521001 0.0014827 -1.1396 4284682060
0.38651001 0.0014804 -1.1379 4284682060
0.38868001 0.0014805 -1.1379 4284682060
0.39041999 0.0014794 -1.1371 4284682060
0.39392 0.001483 -1.1398 4284682060
0.28983 0.0024961999 -1.1343 4284682060
0.29155999 0.0024947 -1.1337 4284682060
0.29403001 0.0024973 -1.1348 4284682060
0.29576001 0.0024957999 -1.1342 4284682060
0.29786 0.0024963 -1.1344 4284682060
0.29995999 0.0024967999 -1.1346 4284682060
0.30627999 0.0024983 -1.1353 4284682060
0.30726001 0.0024927 -1.1328 4284682060
0.31013 0.0024973 -1.1348 4284682060
0.31071001 0.0024896001 -1.1313 4284682060
0.31321001 0.0024921 -1.1325001 4284682060
0.31647 0.0024985999 -1.1355 4284682060
0.31742999 0.0024929999 -1.1329 4284682060
0.31994 0.0024955 -1.1339999 4284682060
0.32457 0.0024983 -1.1353 4284682060
0.3263 0.0024967 -1.1346 4284682060
0.32843 0.0024971 -1.1346999 4284682060
0.33214 0.0025056 -1.1386 4284682060
0.33467001 0.0025078999 -1.1397001 4284682060
0.33640999 0.0025063001 -1.1389 4284682060
0.33774999 0.0025026 -1.1373 4284682060
0.33908001 0.0024989001 -1.1356 4284682060
0.34457001 0.0025056 -1.1386 4284682060
0.34672001 0.0025059001 -1.1388 4284682060
0.35449001 0.0025031001 -1.1375 4284682060
0.36912 0.0025124999 -1.1417 4284682060
0.37000999 0.0025067001 -1.1391 4284682060
0.37259999 0.0025088999 -1.1401 4284682060
0.37435001 0.0025071001 -1.1393 4284682060
0.37608001 0.0025053001 -1.1385 4284682060
0.37781999 0.0025034 -1.1375999 4284682060
0.38042 0.0025056 -1.1386 4284682060
0.38260001 0.0025057001 -1.1387 4284682060
0.38521001 0.0025078 -1.1396 4284682060
0.38738 0.002508 -1.1397001 4284682060
0.38956001 0.0025080999 -1.1397001 4284682060
0.39129999 0.0025062 -1.1389 4284682060
0.39348 0.0025063001 -1.1389 4284682060
0.28983 0.0037791 -1.1343 4284682060
0.29192999 0.0037799999 -1.1346 4284682060
0.29366001 0.0037777 -1.1339 4284682060
0.29576001 0.0037785 -1.1341 4284682060
0.29749 0.0037762001 -1.1335 4284682060
0.29922 0.0037739 -1.1328 4284682060
0.30131999 0.0037747 -1.133 4284682060
0.30627999 0.0037823999 -1.1353 4284682060
0.30801001 0.0037801 -1.1346 4284682060
0.31051001 0.0037839001 -1.1358 4284682060
0.31147999 0.0037753 -1.1332 4284682060
0.31281999 0.0037699 -1.1316 4284682060
0.31531999 0.0037736001 -1.1327 4284682060
0.31665999 0.0037682001 -1.131 4284682060
0.31916001 0.0037719 -1.1322 4284682060
0.32089001 0.0037694999 -1.1314 4284682060
0.32379001 0.0037762001 -1.1335 4284682060
0.32591 0.0037769 -1.1336 4284682060
0.32802999 0.0037775 -1.1338 4284682060
0.33015999 0.0037779999 -1.1339999 4284682060
0.33267999 0.0037817 -1.1351 4284682060
0.33442 0.0037791999 -1.1343 4284682060
0.33614999 0.0037765999 -1.1336 4284682060
0.33827999 0.0037771999 -1.1337 4284682060
0.34121999 0.0037837999 -1.1357 4284682060
0.34255001 0.0037781999 -1.1339999 4284682060
0.34509 0.0037817 -1.1351 4284682060
0.34764001 0.0037852 -1.1362 4284682060
0.35060999 0.0037916999 -1.1381 4284682060
0.35152 0.0037831001 -1.1355 4284682060
0.35367 0.0037835001 -1.1356 4284682060
0.36653 0.0038005 -1.1407 4284682060
0.36785001 0.0037948 -1.1390001 4284682060
0.36959001 0.003792 -1.1382 4284682060
0.37218001 0.0037954 -1.1392 4284682060
0.37608001 0.0037928999 -1.1385 4284682060
0.37781999 0.0037901001 -1.1375999 4284682060
0.38042 0.0037934 -1.1386 4284682060
0.38172999 0.0037876 -1.1368999 4284682060
0.38433999 0.0037908 -1.1378 4284682060
0.38738 0.003797 -1.1397001 4284682060
0.38999999 0.0038002001 -1.1406 4284682060
0.39173999 0.0037972999 -1.1398 4284682060
0.39436999 0.0038005 -1.1407 4284682060
0.28983 0.0049725999 -1.1343 4284682060
0.29192999 0.0049736998 -1.1346 4284682060
0.29403001 0.0049748002 -1.1348 4284682060
0.29576001 0.0049717999 -1.1341 4284682060
0.29712 0.0049647 -1.1325001 4284682060
0.29848 0.0049576 -1.1309 4284682060
0.30131999 0.0049668001 -1.133 4284682060
0.30342001 0.0049677999 -1.1332 4284682060
0.30702999 0.004985 -1.1372 4284682060
0.30838999 0.0049779001 -1.1355 4284682060
0.31051001 0.0049788002 -1.1357 4284682060
0.31186 0.0049716001 -1.1341 4284682060
0.31435001 0.0049765999 -1.1352 4284682060
0.31608999 0.0049733999 -1.1345 4284682060
0.31782001 0.0049703 -1.1338 4284682060
0.31994 0.0049711 -1.1339999 4284682060
0.32245001 0.0049760002 -1.1351 4284682060
0.32495999 0.0049808999 -1.1362 4284682060
0.32668999 0.0049776002 -1.1355 4284682060
0.32843 0.0049744002 -1.1346999 4284682060
0.32975999 0.0049671 -1.1331 4284682060
0.33401999 0.0049685999 -1.1334 4284682060
0.33774999 0.0049854 -1.1372 4284682060
0.33948001 0.0049820002 -1.1365 4284682060
0.34040999 0.0049707 -1.1339 4284682060
0.34509 0.0049759001 -1.1351 4284682060
0.34722999 0.0049765999 -1.1352 4284682060
0.35060999 0.0049891002 -1.1381 4284682060
0.35192999 0.0049816999 -1.1364 4284682060
0.35407999 0.0049823001 -1.1365 4284682060
0.35580999 0.0049788002 -1.1358 4284682060
0.36526999 0.0049887002 -1.138 4284682060
0.36700001 0.0049851998 -1.1372 4284682060
0.36959001 0.0049895002 -1.1382 4284682060
0.37391999 0.0049903002 -1.1384 4284682060
0.37566 0.0049867001 -1.1375 4284682060
0.37781999 0.004987 -1.1375999 4284682060
0.38042 0.0049912999 -1.1386 4284682060
0.38216001 0.0049875998 -1.1378 4284682060
0.38477001 0.0049919002 -1.1387 4284682060
0.38607001 0.0049842 -1.137 4284682060
0.38999999 0.0050002001 -1.1406 4284682060
0.39218 0.0050003999 -1.1407 4284682060
0.39348 0.0049927002 -1.1389 4284682060
0.28874001 0.0059469002 -1.1315 4284682060
0.29403001 0.0059642 -1.1348 4284682060
0.29539001 0.0059557999 -1.1332 4284682060
0.29675001 0.0059472998 -1.1316 4284682060
0.29848 0.0059437002 -1.1309 4284682060
0.30169001 0.0059595001 -1.1339 4284682060
0.30379999 0.0059607001 -1.1342 4284682060
0.30627999 0.0059667998 -1.1353 4284682060
0.30688 0.0059484998 -1.1318001 4284682060
0.31013 0.0059642 -1.1348 4284682060
0.31186 0.0059604999 -1.1341 4284682060
0.31435001 0.0059663998 -1.1352 4284682060
0.31569999 0.0059578 -1.1336 4284682060
0.31782001 0.0059588999 -1.1338 4284682060
0.32032001 0.0059647001 -1.1349 4284682060
0.32245001 0.0059656999 -1.1351 4284682060
0.33267999 0.0059655998 -1.1351 4284682060
0.33601001 0.0059809 -1.138 4284682060
0.33855 0.0059866002 -1.1391 4284682060
0.34029001 0.0059826002 -1.1382999 4284682060
0.34162 0.0059737 -1.1366 4284682060
0.34255001 0.0059600999 -1.1339999 4284682060
0.34549999 0.0059704999 -1.136 4284682060
0.34722999 0.0059663998 -1.1352 4284682060
0.3502 0.0059767002 -1.1372 4284682060
0.35192999 0.0059726001 -1.1364 4284682060
0.35449001 0.0059779999 -1.1374 4284682060
0.35580999 0.0059691002 -1.1357 4284682060
0.36485001 0.0059762001 -1.1371 4284682060
0.36658001 0.0059719998 -1.1363 4284682060
0.36831999 0.0059676999 -1.1355 4284682060
0.37391999 0.0059829 -1.1384 4284682060
0.37608001 0.0059833 -1.1384 4284682060
0.37825 0.0059837 -1.1385 4284682060
0.37999001 0.0059793 -1.1377 4284682060
0.38216001 0.0059797 -1.1378 4284682060
0.38389999 0.0059753 -1.1368999 4284682060
0.38564 0.0059708999 -1.1361001 4284682060
0.38780999 0.0059711002 -1.1361001 4284682060
0.39262 0.0059997002 -1.1416 4284682060
0.39348 0.0059858002 -1.1389 4284682060
0.39566001 0.0059859999 -1.1390001 4284682060
0.28946999 0.0071125999 -1.1334 4284682060
0.29120001 0.0071083 -1.1327 4284682060
0.29293001 0.0071041002 -1.132 4284682060
0.29464999 0.0070997998 -1.1313 4284682060
0.29712 0.0071072001 -1.1325001 4284682060
0.29848 0.0070969998 -1.1309 4284682060
0.30057001 0.0070985002 -1.1311001 4284682060
0.30267 0.0070998999 -1.1314 4284682060
0.30553001 0.0071129999 -1.1334 4284682060
0.30726001 0.0071085999 -1.1327 4284682060
0.30899 0.0071041002 -1.132 4284682060
0.31071001 0.0070997002 -1.1313 4284682060
0.31358999 0.0071125999 -1.1334 4284682060
0.31569999 0.0071139 -1.1336 4284682060
0.31782001 0.0071152002 -1.1338 4284682060
0.31916001 0.0071048001 -1.1321 4284682060
0.32534999 0.0071361 -1.1371 4284682060
0.33228999 0.0071173999 -1.1342 4284682060
0.33561 0.0071358001 -1.1371 4284682060
0.33868 0.0071204999 -1.1346 4284682060
0.34549999 0.007129 -1.136 4284682060
0.34641999 0.0071127 -1.1334 4284682060
0.34897 0.0071192998 -1.1344 4284682060
0.35152 0.0071258 -1.1355 4284682060
0.35367 0.0071266 -1.1356 4284682060
0.36311001 0.0071409 -1.1379 4284682060
0.36526999 0.0071415999 -1.138 4284682060
0.36574 0.0071194 -1.1345 4284682060
0.36747 0.0071143 -1.1337 4284682060
0.36962 0.0071148998 -1.1338 4284682060
0.37305999 0.0071324999 -1.1366 4284682060
0.37608001 0.0071442998 -1.1384 4284682060
0.37652999 0.0071222 -1.1349 4284682060
0.37999001 0.0071395999 -1.1377 4284682060
0.38216001 0.0071399999 -1.1378 4284682060
0.38433999 0.0071403999 -1.1378 4284682060
0.38564 0.0071295002 -1.1361001 4284682060
0.38824999 0.0071355002 -1.137 4284682060
0.38997999 0.0071302 -1.1362 4284682060
0.3926 0.0071361 -1.1371 4284682060
0.39478001 0.0071363002 -1.1372 4284682060
0.28946999 0.0082128998 -1.1334 4284682060
0.29047 0.0081944996 -1.1308 4284682060
0.29183 0.0081829 -1.1292 4284682060
0.29355001 0.0081780003 -1.1285 4284682060
0.29822999 0.0082269004 -1.1353 4284682060
0.29922 0.0082083996 -1.1327 4284682060
0.30094999 0.0082034003 -1.1321 4284682060
0.30305001 0.0082051 -1.1323 4284682060
0.30553001 0.0082133999 -1.1334 4284682060
0.30688 0.0082016001 -1.1318001 4284682060
0.30860999 0.0081965001 -1.1311001 4284682060
0.31321001 0.0082063004 -1.1325001 4284682060
0.31569999 0.0082144001 -1.1336 4284682060
0.31782001 0.0082158996 -1.1338 4284682060
0.31955001 0.0082106004 -1.1331 4284682060
0.3263 0.0082214 -1.1345 4284682060
0.33228999 0.0082184998 -1.1341 4284682060
0.33480999 0.0082264002 -1.1352 4284682060
0.33655 0.0082208999 -1.1345 4284682060
0.33908001 0.0082286997 -1.1355 4284682060
0.34549999 0.0082318997 -1.136 4284682060
0.34764001 0.0082328999 -1.1361001 4284682060
0.34897 0.0082206996 -1.1344 4284682060
0.35111001 0.0082216002 -1.1346 4284682060
0.35325 0.0082226004 -1.1346999 4284682060
0.35499001 0.0082168002 -1.1339 4284682060
0.36353001 0.0082521997 -1.1388 4284682060
0.36658001 0.0082339998 -1.1363 4284682060
0.36873999 0.0082347002 -1.1364 4284682060
0.37048 0.0082286997 -1.1356 4284682060
0.37178001 0.0082163 -1.1338 4284682060
0.37566 0.0082430998 -1.1375 4284682060
0.37781999 0.0082435999 -1.1375999 4284682060
0.37999001 0.0082441 -1.1377 4284682060
0.38260001 0.0082512004 -1.1386 4284682060
0.38477001 0.0082516 -1.1387 4284682060
0.38694999 0.0082520004 -1.1388 4284682060
0.38868001 0.0082459003 -1.1379 4284682060
0.39041999 0.0082397005 -1.1371 4284682060
0.39216 0.0082336003 -1.1362 4284682060
0.39388999 0.0082273996 -1.1354001 4284682060
0.39607 0.0082275998 -1.1354001 4284682060
0.28946999 0.0092329998 -1.1334 4284682060
0.29245001 0.0091709001 -1.1257 4284682060
0.29786 0.0092411004 -1.1344 4284682060
0.29995999 0.0092430003 -1.1346 4284682060
0.30169001 0.0092374003 -1.1339 4284682060
0.30379999 0.0092391996 -1.1341 4284682060
0.30590999 0.0092411004 -1.1344 4284682060
0.30726001 0.0092278002 -1.1327 4284682060
0.30785 0.0091994004 -1.1292 4284682060
0.30919001 0.0091861002 -1.1276 4284682060
0.31281999 0.0092179002 -1.1315 4284682060
0.31492999 0.0092195999 -1.1317 4284682060
0.31665999 0.0092137996 -1.131 4284682060
0.31876999 0.0092153996 -1.1312 4284682060
0.32457 0.0092484998 -1.1353 4284682060
0.3263 0.0092425002 -1.1345 4284682060
0.33054999 0.0092454003 -1.1349 4284682060
0.33348 0.0092617003 -1.1368999 4284682060
0.33655 0.0092420001 -1.1345 4284682060
0.33827999 0.0092358002 -1.1337 4284682060
0.34509 0.0092468997 -1.1351 4284682060
0.34722999 0.0092479996 -1.1352 4284682060
0.34979001 0.0092564998 -1.1363 4284682060
0.35152 0.0092502004 -1.1355 4284682060
0.35325 0.0092438003 -1.1346999 4284682060
0.35499001 0.0092374003 -1.1339 4284682060
0.36700001 0.0092639998 -1.1372 4284682060
0.36831999 0.0092500001 -1.1355 4284682060
0.37048 0.0092508001 -1.1355 4284682060
0.37221 0.0092441002 -1.1346999 4284682060
0.37523001 0.0092594996 -1.1366 4284682060
0.37739 0.0092601003 -1.1367 4284682060
0.38042 0.0092754001 -1.1386 4284682060
0.38216001 0.0092685996 -1.1377 4284682060
0.38477001 0.0092764003 -1.1387 4284682060
0.38651001 0.0092695998 -1.1379 4284682060
0.38824999 0.0092626996 -1.137 4284682060
0.38953999 0.0092484998 -1.1353 4284682060
0.39172 0.0092487996 -1.1353 4284682060
0.39522001 0.0092711002 -1.138 4284682060
0.29183 0.010504 -1.1292 4284682060
0.29502001 0.010533 -1.1322 4284682060
0.29675001 0.010526 -1.1316 4284682060
0.29922 0.010537 -1.1327 4284682060
0.29982999 0.010505 -1.1293 4284682060
0.30155 0.010498 -1.1286 4284682060
0.30478001 0.010526 -1.1316 4284682060
0.30688 0.010528 -1.1318001 4284682060
0.30785 0.010505 -1.1292 4284682060
0.30919001 0.010489 -1.1276 4284682060
0.31167999 0.0105 -1.1287 4284682060
0.31417 0.010511 -1.1299 4284682060
0.31589001 0.010504 -1.1291 4284682060
0.31683999 0.01048 -1.1266 4284682060
0.33535001 0.010528 -1.1317 4284682060
0.33667001 0.010512 -1.13 4284682060
0.33840001 0.010505 -1.1293 4284682060
0.34174001 0.010532 -1.1322 4284682060
0.34347001 0.010525 -1.1314 4284682060
0.34733 0.010519 -1.1308 4284682060
0.35152 0.010563 -1.1355 4284682060
0.35499001 0.010548 -1.1339 4284682060
0.35587999 0.010524 -1.1313 4284682060
0.36531001 0.010545 -1.1335 4284682060
0.36873999 0.010571 -1.1363 4284682060
0.37048 0.010563 -1.1355 4284682060
0.37264001 0.010564 -1.1356 4284682060
0.37437001 0.010556 -1.1348 4284682060
0.37652999 0.010557 -1.1349 4284682060
0.37869999 0.010558 -1.135 4284682060
0.3813 0.010567 -1.1359 4284682060
0.38607001 0.010576 -1.1368999 4284682060
0.38736999 0.01056 -1.1352 4284682060
0.39172 0.010561 -1.1353 4284682060
0.39522001 0.010587 -1.138 4284682060
0.39695999 0.010579 -1.1372 4284682060
0.29328999 0.011778 -1.1329 4284682060
0.29502001 0.01177 -1.1322 4284682060
0.29638001 0.011754 -1.1306 4284682060
0.29848 0.011756 -1.1309 4284682060
0.30094999 0.011768 -1.132 4284682060
0.30267 0.011761 -1.1313 4284682060
0.3044 0.011754 -1.1306 4284682060
0.30575001 0.011737 -1.1289999 4284682060
0.30746999 0.011729 -1.1283 4284682060
0.30957001 0.011732 -1.1285 4284682060
0.31206 0.011744 -1.1296 4284682060
0.31417 0.011746 -1.1299 4284682060
0.31628001 0.011748 -1.1301 4284682060
0.31839001 0.01175 -1.1303 4284682060
0.32881999 0.011805 -1.1356 4284682060
0.32936999 0.011769 -1.1321 4284682060
0.33109999 0.011761 -1.1314 4284682060
0.33322001 0.011763 -1.1315 4284682060
0.33614999 0.011784 -1.1335 4284682060
0.33706999 0.011757 -1.1309 4284682060
0.33880001 0.011749 -1.1302 4284682060
0.34213999 0.011779 -1.1331 4284682060
0.34387001 0.011771 -1.1323 4284682060
0.34560001 0.011763 -1.1315 4284682060
0.34733 0.011755 -1.1308 4284682060
0.35069999 0.011785 -1.1336 4284682060
0.35457 0.011778 -1.133 4284682060
0.35587999 0.01176 -1.1313 4284682060
0.36574 0.011793 -1.1344 4284682060
0.36789 0.011794 -1.1345 4284682060
0.37005001 0.011795 -1.1346 4284682060
0.37178001 0.011787 -1.1338 4284682060
0.3748 0.011806 -1.1357 4284682060
0.37696001 0.011807 -1.1358 4284682060
0.37825999 0.011789 -1.1339999 4284682060
0.37999001 0.011781 -1.1332 4284682060
0.38303 0.0118 -1.1351 4284682060
0.38607001 0.011819 -1.1368999 4284682060
0.38736999 0.011801 -1.1352 4284682060
0.38953999 0.011802 -1.1352 4284682060
0.39172 0.011802 -1.1353 4284682060
0.39344999 0.011793 -1.1344 4284682060
0.39517999 0.011784 -1.1336 4284682060
0.3978 0.011794 -1.1345 4284682060
0.28974 0.012751 -1.1289001 4284682060
0.29328999 0.012796 -1.1329 4284682060
0.29502001 0.012788 -1.1322 4284682060
0.29638001 0.01277 -1.1306 4284682060
0.29811001 0.012762 -1.1299 4284682060
0.30019999 0.012765 -1.1302 4284682060
0.30230001 0.012768 -1.1303999 4284682060
0.3044 0.01277 -1.1306 4284682060
0.30575001 0.012752 -1.1289999 4284682060
0.30709001 0.012733 -1.1274 4284682060
0.31071001 0.012778 -1.1313 4284682060
0.31244001 0.01277 -1.1306 4284682060
0.31455001 0.012772 -1.1308 4284682060
0.31549999 0.012743 -1.1282001 4284682060
0.31761 0.012745 -1.1284 4284682060
0.32725 0.012785 -1.1319 4284682060
0.32857999 0.012766 -1.1303 4284682060
0.33149001 0.012789 -1.1323 4284682060
0.33706999 0.012774 -1.1309 4284682060
0.33880001 0.012765 -1.1302 4284682060
0.34213999 0.012798 -1.1331 4284682060
0.34387001 0.012789 -1.1323 4284682060
0.34478 0.01276 -1.1296999 4284682060
0.34733 0.012772 -1.1307 4284682060
0.35152 0.012825 -1.1354001 4284682060
0.35159999 0.012775 -1.131 4284682060
0.36789 0.012814 -1.1345 4284682060
0.36919999 0.012795 -1.1328 4284682060
0.37092999 0.012786 -1.132 4284682060
0.37523001 0.012838 -1.1366 4284682060
0.37696001 0.012828 -1.1358 4284682060
0.37869999 0.012819 -1.1349 4284682060
0.38043001 0.01281 -1.1341 4284682060
0.38259 0.01281 -1.1342 4284682060
0.38564 0.012831 -1.136 4284682060
0.38736999 0.012822 -1.1352 4284682060
0.38953999 0.012822 -1.1352 4284682060
0.39128 0.012813 -1.1344 4284682060
0.39300999 0.012803 -1.1335 4284682060
0.39473999 0.012793 -1.1327 4284682060
0.39736 0.012804 -1.1336 4284682060
0.29218999 0.01384 -1.1301 4284682060
0.29464999 0.013855 -1.1313 4284682060
0.29527 0.013812 -1.1278 4284682060
0.29945999 0.013818 -1.1283 4284682060
0.30193001 0.013832 -1.1294 4284682060
0.30478001 0.013858 -1.1315 4284682060
0.30649999 0.013849 -1.1308 4284682060
0.30709001 0.013807 -1.1273 4284682060
0.30881 0.013798 -1.1266 4284682060
0.31167999 0.013823 -1.1287 4284682060
0.31378001 0.013826 -1.1289001 4284682060
0.31549999 0.013817 -1.1282001 4284682060
0.31722 0.013808 -1.1275001 4284682060
0.31933001 0.013811 -1.1277 4284682060
0.32260999 0.013847 -1.1306 4284682060
0.32646 0.01384 -1.1301 4284682060
0.32896999 0.013853 -1.1312 4284682060
0.33070001 0.013844 -1.1303999 4284682060
0.34305999 0.013845 -1.1305 4284682060
0.34560001 0.013858 -1.1315 4284682060
0.34773999 0.013859 -1.1316 4284682060
0.34946001 0.01385 -1.1309 4284682060
0.35119 0.01384 -1.1301 4284682060
0.35291001 0.013831 -1.1293 4284682060
0.3563 0.013866 -1.1322 4284682060
0.35802999 0.013856 -1.1314 4284682060
0.35975 0.013846 -1.1306 4284682060
0.3619 0.013847 -1.1307 4284682060
0.36447001 0.01386 -1.1317 4284682060
0.3662 0.01385 -1.1309 4284682060
0.37005001 0.013895 -1.1346 4284682060
0.37178001 0.013885 -1.1338 4284682060
0.37222001 0.013842 -1.1302 4284682060
0.37351999 0.013821 -1.1285 4284682060
0.37740001 0.013866 -1.1322 4284682060
0.37955999 0.013867 -1.1323 4284682060
0.38216001 0.013879 -1.1332999 4284682060
0.38519999 0.013902 -1.1351 4284682060
0.38736999 0.013902 -1.1352 4284682060
0.38953999 0.013903 -1.1352 4284682060
0.39128 0.013893 -1.1344 4284682060
0.39300999 0.013882 -1.1335 4284682060
0.39517999 0.013883 -1.1336 4284682060
0.39691001 0.013872 -1.1327 4284682060
0.29082999 0.014957 -1.1317 4284682060
0.29183 0.014923 -1.1292 4284682060
0.29355001 0.014914 -1.1285 4284682060
0.29527 0.014905 -1.1278 4284682060
0.29736 0.014909 -1.128 4284682060
0.29945999 0.014912 -1.1283 4284682060
0.30193001 0.014927 -1.1294 4284682060
0.30401999 0.01493 -1.1296999 4284682060
0.30575001 0.014921 -1.1289999 4284682060
0.30785 0.014924 -1.1292 4284682060
0.30957001 0.014914 -1.1285 4284682060
0.31244001 0.014942 -1.1305 4284682060
0.31455001 0.014944 -1.1307 4284682060
0.31589001 0.014923 -1.1291 4284682060
0.31799999 0.014925 -1.1293 4284682060
0.32010999 0.014928 -1.1295 4284682060
0.32222 0.01493 -1.1296999 4284682060
0.32646 0.014935 -1.1301 4284682060
0.32857999 0.014938 -1.1302 4284682060
0.33070001 0.01494 -1.1303999 4284682060
0.34641999 0.014978 -1.1332999 4284682060
0.34815001 0.014968 -1.1325001 4284682060
0.34987 0.014958 -1.1318001 4284682060
0.35119 0.014935 -1.1301 4284682060
0.35587999 0.014951 -1.1312 4284682060
0.35719001 0.014928 -1.1295 4284682060
0.35975 0.014942 -1.1306 4284682060
0.36316001 0.014979 -1.1334 4284682060
0.36447001 0.014957 -1.1317 4284682060
0.3662 0.014946 -1.1309 4284682060
0.36792001 0.014935 -1.1301 4284682060
0.3705 0.014948 -1.1311001 4284682060
0.37265 0.01495 -1.1311001 4284682060
0.37481001 0.014951 -1.1312 4284682060
0.37740001 0.014964 -1.1322 4284682060
0.37955999 0.014964 -1.1323 4284682060
0.38128999 0.014953 -1.1314 4284682060
0.38389 0.014966 -1.1324 4284682060
0.38648999 0.014979 -1.1334 4284682060
0.38866001 0.01498 -1.1334 4284682060
0.39083001 0.01498 -1.1335 4284682060
0.39388999 0.015004 -1.1353 4284682060
0.39563 0.014993 -1.1344 4284682060
0.39736 0.014982 -1.1336 4284682060
0.39908999 0.01497 -1.1327 4284682060
0.29047 0.01606 -1.1307 4284682060
0.29183 0.016037 -1.1291 4284682060
0.29317999 0.016014 -1.1275001 4284682060
0.29527 0.016018 -1.1278 4284682060
0.29773 0.016035 -1.1289001 4284682060
0.29982999 0.016038001 -1.1292 4284682060
0.30193001 0.016040999 -1.1294 4284682060
0.30401999 0.016044 -1.1296 4284682060
0.30575001 0.016034 -1.1289001 4284682060
0.30994999 0.016040999 -1.1294 4284682060
0.31244001 0.016057 -1.1305 4284682060
0.31417 0.016047001 -1.1298 4284682060
0.31472999 0.015997 -1.1263 4284682060
0.31722 0.016013 -1.1274 4284682060
0.32010999 0.016042 -1.1295 4284682060
0.32260999 0.016058 -1.1306 4284682060
0.32778999 0.016026 -1.1284 4284682060
0.34469 0.016107 -1.1341 4284682060
0.34601 0.016083 -1.1324 4284682060
0.34937999 0.016124001 -1.1353 4284682060
0.35111001 0.016113 -1.1345 4284682060
0.35119 0.01605 -1.1301 4284682060
0.35587999 0.016067 -1.1312 4284682060
0.35844001 0.016081 -1.1322 4284682060
0.35933 0.016044 -1.1296 4284682060
0.36232001 0.016071999 -1.1316 4284682060
0.36405 0.01606 -1.1308 4284682060
0.3662 0.016062001 -1.1309 4284682060
0.36835 0.016062999 -1.1309 4284682060
0.37351 0.016091 -1.1329 4284682060
0.3761 0.016105 -1.1339 4284682060
0.37654001 0.016054999 -1.1303999 4284682060
0.38084999 0.016057 -1.1305 4284682060
0.38258001 0.016045 -1.1296999 4284682060
0.38474 0.016046001 -1.1296999 4284682060
0.38822001 0.016085001 -1.1325001 4284682060
0.39128 0.016111 -1.1343 4284682060
0.39344999 0.016112 -1.1344 4284682060
0.39517999 0.016099 -1.1335 4284682060
0.39691001 0.016086999 -1.1327 4284682060
0.39908999 0.016088 -1.1327 4284682060
0.28277001 0.017159 -1.1262 4284682060
0.28937 0.017185999 -1.1279 4284682060
0.29146001 0.017189 -1.1282001 4284682060
0.29317999 0.017178999 -1.1275001 4284682060
0.2949 0.017169001 -1.1267999 4284682060
0.29945999 0.01719 -1.1282001 4284682060
0.30155 0.017193999 -1.1285 4284682060
0.30364999 0.017197 -1.1287 4284682060
0.30537 0.017186999 -1.128 4284682060
0.30709001 0.017176 -1.1273 4284682060
0.30881 0.017165 -1.1266 4284682060
0.31263 0.017157 -1.1260999 4284682060
0.31435001 0.017147001 -1.1253999 4284682060
0.31645 0.01715 -1.1256 4284682060
0.31972 0.017194999 -1.1285 4284682060
0.32144001 0.017184 -1.1278 4284682060
0.34347001 0.017237 -1.1313 4284682060
0.34397 0.017184 -1.1278 4284682060
0.3461 0.017185999 -1.128 4284682060
0.34904999 0.017216001 -1.1299 4284682060
0.35119 0.017217999 -1.13 4284682060
0.35249999 0.017192001 -1.1284 4284682060
0.35339001 0.017152 -1.1257 4284682060
0.35760999 0.017223001 -1.1303999 4284682060
0.36017001 0.017239001 -1.1314 4284682060
0.3619 0.017227 -1.1306 4284682060
0.36362001 0.017214 -1.1298 4284682060
0.36919999 0.017259 -1.1327 4284682060
0.37092999 0.017246 -1.1319 4284682060
0.37307999 0.017247999 -1.132 4284682060
0.37566999 0.017263001 -1.133 4284682060
0.37869 0.017224001 -1.1303999 4284682060
0.38084999 0.017224999 -1.1305 4284682060
0.38301 0.017225999 -1.1306 4284682060
0.38648999 0.017268 -1.1332999 4284682060
0.38778001 0.017240999 -1.1316 4284682060
0.38951001 0.017228 -1.1307 4284682060
0.39122999 0.017215 -1.1299 4284682060
0.39429 0.017243 -1.1317 4284682060
0.39864001 0.017244 -1.1318001 4284682060
0.28241 0.018480999 -1.1253 4284682060
0.28448001 0.018486001 -1.1255 4284682060
0.28584 0.018459 -1.1239001 4284682060
0.28937 0.018525001 -1.1279 4284682060
0.29245001 0.018487001 -1.1256 4284682060
0.29662001 0.018495001 -1.1260999 4284682060
0.29908001 0.018515 -1.1273 4284682060
0.3008 0.018502999 -1.1266 4284682060
0.30252001 0.018492 -1.1259 4284682060
0.30423999 0.018479999 -1.1252 4284682060
0.30709001 0.018514 -1.1273 4284682060
0.30805001 0.018471999 -1.1247 4284682060
0.30937999 0.018446 -1.1231 4284682060
0.31224 0.018479001 -1.1251 4284682060
0.31549999 0.018528 -1.1281 4284682060
0.31799999 0.018547 -1.1292 4284682060
0.31894001 0.018505 -1.1267 4284682060
0.32066 0.018493 -1.126 4284682060
0.34397 0.018523 -1.1278 4284682060
0.34527999 0.018495001 -1.1260999 4284682060
0.34904999 0.018557001 -1.1299 4284682060
0.35159999 0.018573999 -1.1309 4284682060
0.35332999 0.018562 -1.1301 4284682060
0.35462999 0.018533999 -1.1285 4284682060
0.35760999 0.018564999 -1.1303999 4284682060
0.36017001 0.018581999 -1.1314 4284682060
0.36232001 0.018584 -1.1315 4284682060
0.36405 0.018571001 -1.1307 4284682060
0.36662 0.018587001 -1.1317 4284682060
0.36919999 0.018603999 -1.1327 4284682060
0.3705 0.018575 -1.131 4284682060
0.37222001 0.018562 -1.1302 4284682060
0.37395 0.018549001 -1.1294 4284682060
0.37654001 0.018564999 -1.1303 4284682060
0.37825999 0.018550999 -1.1295 4284682060
0.38128999 0.018581999 -1.1314 4284682060
0.38345 0.018583 -1.1314 4284682060
0.38604999 0.018599 -1.1324 4284682060
0.38734001 0.01857 -1.1307 4284682060
0.38995001 0.018585 -1.1316 4284682060
0.28349 0.019569 -1.128 4284682060
0.28448001 0.019525001 -1.1255 4284682060
0.28511 0.019464999 -1.1221 4284682060
0.28681999 0.019454001 -1.1214 4284682060
0.28999999 0.019506 -1.1244 4284682060
0.29207999 0.019510999 -1.1247 4284682060
0.29416001 0.019515 -1.1249 4284682060
0.29796001 0.019507 -1.1245 4284682060
0.30118001 0.01956 -1.1275001 4284682060
0.30289999 0.019548001 -1.1267999 4284682060
0.30423999 0.019518999 -1.1252 4284682060
0.30594999 0.019507 -1.1245 4284682060
0.30919001 0.019559 -1.1275001 4284682060
0.31167999 0.019579001 -1.1286 4284682060
0.31378001 0.019583 -1.1288 4284682060
0.31512001 0.019554 -1.1272 4284682060
0.31761 0.019574 -1.1283 4284682060
0.34397 0.019564001 -1.1278 4284682060
0.34692001 0.019598 -1.1296999 4284682060
0.34987 0.019632 -1.1317 4284682060
0.35119 0.019602999 -1.13 4284682060
0.35332999 0.019605 -1.1301 4284682060
0.35547 0.019607 -1.1303 4284682060
0.35760999 0.019609001 -1.1303999 4284682060
0.35933 0.019595999 -1.1296 4284682060
0.3619 0.019613 -1.1306 4284682060
0.36405 0.019615 -1.1307 4284682060
0.36662 0.019632 -1.1317 4284682060
0.36877 0.019633999 -1.1318001 4284682060
0.3705 0.019619999 -1.131 4284682060
0.37395 0.019592 -1.1293 4284682060
0.3761 0.019593 -1.1294 4284682060
0.37869 0.019610001 -1.1303999 4284682060
0.38128999 0.019626999 -1.1314 4284682060
0.38389 0.019642999 -1.1323 4284682060
0.38562 0.019629 -1.1315 4284682060
0.38734001 0.019614 -1.1306 4284682060
0.38951001 0.019615 -1.1307 4284682060
0.39168 0.019616 -1.1307 4284682060
0.39296001 0.019585 -1.1289999 4284682060
0.28241 0.020645 -1.1252 4284682060
0.2834 0.020599 -1.1227 4284682060
0.28547001 0.020603999 -1.123 4284682060
0.28718999 0.020591 -1.1223 4284682060
0.28963 0.020613 -1.1235 4284682060
0.29207999 0.020634999 -1.1247 4284682060
0.29453 0.020656999 -1.1258 4284682060
0.29624999 0.020644 -1.1252 4284682060
0.29870999 0.020664999 -1.1263 4284682060
0.3008 0.02067 -1.1266 4284682060
0.30461001 0.020661 -1.1260999 4284682060
0.30633 0.020648001 -1.1253999 4284682060
0.30842999 0.020652 -1.1256 4284682060
0.31015 0.020639 -1.1249 4284682060
0.31395999 0.02063 -1.1244 4284682060
0.31933001 0.020687999 -1.1276 4284682060
0.34478 0.020725001 -1.1296 4284682060
0.3461 0.020694001 -1.1279 4284682060
0.34740999 0.020663001 -1.1262 4284682060
0.34994999 0.020682 -1.1273 4284682060
0.35207999 0.020685 -1.1274 4284682060
0.35505 0.020719999 -1.1293 4284682060
0.35677001 0.020706 -1.1285 4284682060
0.35766 0.020657999 -1.1259 4284682060
0.35979 0.02066 -1.126 4284682060
0.36362001 0.020729 -1.1298 4284682060
0.3662 0.020747 -1.1308 4284682060
0.36835 0.020749001 -1.1309 4284682060
0.37092999 0.020767 -1.1319 4284682060
0.37265 0.020752 -1.131 4284682060
0.37395 0.020719999 -1.1293 4284682060
0.37566999 0.020705 -1.1285 4284682060
0.37825999 0.020723 -1.1295 4284682060
0.38303 0.020824 -1.1349 4284682060
0.38475999 0.020808 -1.1341 4284682060
0.38429999 0.020710001 -1.1288 4284682060
0.38602 0.020695001 -1.1279 4284682060
0.39039001 0.020778 -1.1325001 4284682060
0.39300999 0.020795001 -1.1334 4284682060
0.39340001 0.02073 -1.1299 4284682060
0.28033 0.021740999 -1.1249 4284682060
0.28169 0.021709999 -1.1233 4284682060
0.28376001 0.021716001 -1.1236 4284682060
0.28692999 0.021775 -1.1267 4284682060
0.28863999 0.021762 -1.126 4284682060
0.29036 0.021748999 -1.1253 4284682060
0.29060999 0.021663999 -1.1209 4284682060
0.29379001 0.021722 -1.124 4284682060
0.29624999 0.021745 -1.1251 4284682060
0.29945999 0.021803999 -1.1282001 4284682060
0.29967999 0.021717999 -1.1238 4284682060
0.30498999 0.021780999 -1.127 4284682060
0.30746999 0.021802999 -1.1281 4284682060
0.30842999 0.021754 -1.1256 4284682060
0.30976 0.021722 -1.124 4284682060
0.31147999 0.021708 -1.1232001 4284682060
0.31512001 0.021784 -1.1271 4284682060
0.31722 0.021787999 -1.1273 4284682060
0.31894001 0.021774 -1.1266 4284682060
0.32066 0.02176 -1.1259 4284682060
0.34356001 0.021778001 -1.1267999 4284682060
0.34487 0.021745 -1.1251 4284682060
0.34740999 0.021764999 -1.1262 4284682060
0.34954 0.021768 -1.1263 4284682060
0.35297 0.021738 -1.1248 4284682060
0.35677001 0.021810001 -1.1285 4284682060
0.35848999 0.021795001 -1.1277 4284682060
0.36063999 0.021796999 -1.1278 4284682060
0.36236 0.021782 -1.127 4284682060
0.36662 0.021871001 -1.1317 4284682060
0.36835 0.021855 -1.1308 4284682060
0.36963999 0.021822 -1.1291 4284682060
0.37180001 0.021824 -1.1292 4284682060
0.37351999 0.021808 -1.1284 4284682060
0.3761 0.021826999 -1.1294 4284682060
0.37825999 0.021828 -1.1295 4284682060
0.38259 0.021917 -1.1339999 4284682060
0.38389 0.021883 -1.1323 4284682060
0.38429999 0.021815 -1.1287 4284682060
0.38602 0.021799 -1.1279 4284682060
0.38907 0.021833999 -1.1298 4284682060
0.39168 0.021853 -1.1307 4284682060
0.39340001 0.021836 -1.1298 4284682060
0.28069001 0.022845 -1.1258 4284682060
0.28061 0.022737 -1.1205 4284682060
0.28195 0.022705 -1.1188999 4284682060
0.28511 0.022767 -1.122 4284682060
0.28828001 0.022829 -1.125 4284682060
0.28963 0.022797 -1.1234 4284682060
0.29060999 0.022745 -1.1209 4284682060
0.29796001 0.022817001 -1.1244 4284682060
0.30004999 0.022821 -1.1247 4284682060
0.30537 0.022887001 -1.1279 4284682060
0.30709001 0.022872999 -1.1272 4284682060
0.30842999 0.022840001 -1.1256 4284682060
0.31147999 0.022792 -1.1232001 4284682060
0.31472999 0.022853 -1.1262 4284682060
0.31761 0.022894001 -1.1282001 4284682060
0.31933001 0.022879001 -1.1275001 4284682060
0.32066 0.022846 -1.1259 4284682060
0.34233001 0.022809001 -1.1241 4284682060
0.34404999 0.022794001 -1.1233 4284682060
0.34954 0.022855001 -1.1263 4284682060
0.35167 0.022856999 -1.1264 4284682060
0.35339001 0.022841001 -1.1256 4284682060
0.35802999 0.022954 -1.1312 4284682060
0.35975 0.022938 -1.1303999 4284682060
0.36021 0.022867 -1.1269 4284682060
0.36193001 0.022851 -1.1260999 4284682060
0.36662 0.022963 -1.1316 4284682060
0.36835 0.022946 -1.1308 4284682060
0.37007001 0.02293 -1.13 4284682060
0.37222001 0.022932 -1.1301 4284682060
0.37437999 0.022933001 -1.1302 4284682060
0.37566999 0.022898 -1.1285 4284682060
0.37739 0.022882 -1.1276 4284682060
0.38084999 0.022938 -1.1303999 4284682060
0.38258001 0.022921 -1.1296 4284682060
0.38429999 0.022903999 -1.1287 4284682060
0.38646001 0.022905 -1.1288 4284682060
0.38951001 0.022941999 -1.1306 4284682060
0.39212 0.022962 -1.1316 4284682060
0.27996999 0.023903999 -1.124 4284682060
0.28169 0.02389 -1.1233 4284682060
0.28268 0.023836 -1.1208 4284682060
0.28511 0.023862001 -1.122 4284682060
0.28828001 0.023926999 -1.125 4284682060
0.28963 0.023893001 -1.1234 4284682060
0.29097 0.023858 -1.1217999 4284682060
0.29268 0.023844 -1.1210999 4284682060
0.29699001 0.023968 -1.127 4284682060
0.29870999 0.023953 -1.1263 4284682060
0.30805001 0.023917999 -1.1246001 4284682060
0.30937999 0.023883 -1.123 4284682060
0.31147999 0.023887999 -1.1232001 4284682060
0.31319001 0.023872999 -1.1224999 4284682060
0.31645 0.023936 -1.1255 4284682060
0.31933001 0.023979001 -1.1275001 4284682060
0.31948999 0.023886001 -1.1231 4284682060
0.32120001 0.023870001 -1.1224 4284682060
0.32370001 0.023894001 -1.1235 4284682060
0.34446001 0.023909001 -1.1242 4284682060
0.34954 0.023953 -1.1263 4284682060
0.35124999 0.023937 -1.1255 4284682060
0.35677001 0.024 -1.1285 4284682060
0.35890999 0.024002001 -1.1286 4284682060
0.36021 0.023965999 -1.1269 4284682060
0.36193001 0.023948999 -1.1260999 4284682060
0.36407 0.023951 -1.1262 4284682060
0.36622 0.023953 -1.1263 4284682060
0.3705 0.024052 -1.1309 4284682060
0.37094 0.023977 -1.1274 4284682060
0.37481001 0.024055 -1.1311001 4284682060
0.3761 0.024018001 -1.1293 4284682060
0.37783 0.024001 -1.1285 4284682060
0.37867999 0.023945 -1.1259 4284682060
0.38170001 0.023985 -1.1277 4284682060
0.38385999 0.023986001 -1.1278 4284682060
0.38558 0.023968 -1.127 4284682060
0.38730001 0.023949999 -1.1260999 4284682060
0.38991001 0.02397 -1.1271 4284682060
0.39429 0.024065999 -1.1316 4284682060
0.27961001 0.024992 -1.123 4284682060
0.28205001 0.025018999 -1.1242 4284682060
0.28376001 0.025003999 -1.1235 4284682060
0.28584 0.025010001 -1.1238 4284682060
0.28791001 0.025016 -1.1241 4284682060
0.28963 0.025001001 -1.1234 4284682060
0.29097 0.024964999 -1.1217999 4284682060
0.29379001 0.025012 -1.1239001 4284682060
0.29796001 0.025023 -1.1244 4284682060
0.30842999 0.025048001 -1.1255 4284682060
0.30937999 0.024991 -1.123 4284682060
0.31202999 0.024919 -1.1197 4284682060
0.31490001 0.024963999 -1.1217 4284682060
0.31817001 0.02503 -1.1247 4284682060
0.31871 0.024953 -1.1212 4284682060
0.34274 0.025034999 -1.1249 4284682060
0.34782001 0.025082 -1.127 4284682060
0.35167 0.025067 -1.1264 4284682060
0.35552001 0.025053 -1.1257 4284682060
0.35766 0.025055001 -1.1258 4284682060
0.36021 0.025078001 -1.1269 4284682060
0.36278 0.0251 -1.1279 4284682060
0.36449999 0.025083 -1.1271 4284682060
0.36622 0.025064999 -1.1263 4284682060
0.37180001 0.025129 -1.1292 4284682060
0.37395 0.025131 -1.1292 4284682060
0.3761 0.025133001 -1.1293 4284682060
0.37911001 0.025076 -1.1267999 4284682060
0.38126999 0.025077 -1.1267999 4284682060
0.38429999 0.025118999 -1.1287 4284682060
0.38646001 0.025119999 -1.1287 4284682060
0.38773999 0.025080999 -1.127 4284682060
0.38946 0.025062 -1.1260999 4284682060
0.2789 0.026055999 -1.1210999 4284682060
0.28061 0.026040999 -1.1204 4284682060
0.28268 0.026047001 -1.1207 4284682060
0.28437999 0.026032001 -1.1201 4284682060
0.28718999 0.026081 -1.1222 4284682060
0.28889999 0.026066 -1.1215 4284682060
0.29133999 0.026093001 -1.1227 4284682060
0.29304999 0.026078001 -1.122 4284682060
0.29550999 0.026105 -1.1232001 4284682060
0.29721999 0.026089 -1.1224999 4284682060
0.30728999 0.026094001 -1.1227 4284682060
0.31053001 0.026163001 -1.1257 4284682060
0.31071001 0.026061 -1.1213 4284682060
0.31319001 0.026086999 -1.1224 4284682060
0.31373999 0.026006 -1.119 4284682060
0.31738999 0.026097 -1.1228 4284682060
0.31909999 0.026079999 -1.1221 4284682060
0.32120001 0.026084 -1.1223 4284682060
0.32449001 0.026153 -1.1253 4284682060
0.32659999 0.026156999 -1.1253999 4284682060
0.34274 0.026145 -1.1249 4284682060
0.34527999 0.026169 -1.126 4284682060
0.34740999 0.026172001 -1.1260999 4284682060
0.35084 0.026136 -1.1245 4284682060
0.3538 0.026180999 -1.1265 4284682060
0.35594001 0.026184 -1.1266 4284682060
0.35808 0.026187001 -1.1267 4284682060
0.35979 0.026168 -1.1259 4284682060
0.36362001 0.026255 -1.1296999 4284682060
0.36577001 0.026257001 -1.1298 4284682060
0.36748999 0.026239 -1.1289001 4284682060
0.37180001 0.026242999 -1.1291 4284682060
0.37395 0.026245 -1.1292 4284682060
0.37566999 0.026226001 -1.1284 4284682060
0.37739 0.026206 -1.1276 4284682060
0.37955001 0.026208 -1.1276 4284682060
0.38214001 0.026231 -1.1286 4284682060
0.38474 0.026253 -1.1296 4284682060
0.38646001 0.026233001 -1.1287 4284682060
0.38907 0.026255 -1.1296999 4284682060
0.28303999 0.027176 -1.1216 4284682060
0.28681999 0.027166 -1.1212 4284682060
0.28852999 0.02715 -1.1206 4284682060
0.29097 0.027178001 -1.1217 4284682060
0.29231 0.027139001 -1.1201 4284682060
0.29438999 0.027145 -1.1204 4284682060
0.30728999 0.027202001 -1.1227 4284682060
0.30899999 0.027184 -1.122 4284682060
0.31108999 0.02719 -1.1222 4284682060
0.31319001 0.027194999 -1.1224 4284682060
0.31567001 0.027222 -1.1235 4284682060
0.31817001 0.027248999 -1.1247 4284682060
0.32159001 0.027214 -1.1232001 4284682060
0.32620001 0.027245 -1.1245 4284682060
0.32791999 0.027226999 -1.1238 4284682060
0.32962999 0.027209001 -1.123 4284682060
0.33254001 0.027257999 -1.125 4284682060
0.34527999 0.027279999 -1.1259 4284682060
0.34830001 0.02722 -1.1235 4284682060
0.3538 0.027293 -1.1265 4284682060
0.35552001 0.027274 -1.1257 4284682060
0.35766 0.027276 -1.1258 4284682060
0.36063999 0.027323 -1.1277 4284682060
0.36320001 0.027348001 -1.1287 4284682060
0.36407 0.027284 -1.1260999 4284682060
0.37266001 0.027293 -1.1265 4284682060
0.37437999 0.027272999 -1.1257 4284682060
0.38258001 0.027365999 -1.1295 4284682060
0.38299 0.027279999 -1.1259 4284682060
0.3847 0.02726 -1.1251 4284682060
0.38773999 0.027305 -1.1269 4284682060
0.28231001 0.028241999 -1.1197 4284682060
0.28365999 0.028201999 -1.1181 4284682060
0.28646001 0.028255999 -1.1203001 4284682060
0.28963 0.028333001 -1.1233 4284682060
0.29170999 0.028339 -1.1236 4284682060
0.29341999 0.028322 -1.1229 4284682060
0.29513001 0.028305 -1.1222 4284682060
0.31108999 0.028303999 -1.1222 4284682060
0.31319001 0.028309001 -1.1224 4284682060
0.31645 0.028384 -1.1253999 4284682060
0.31817001 0.028365999 -1.1246001 4284682060
0.31948999 0.028324001 -1.123 4284682060
0.32080999 0.028283 -1.1213 4284682060
0.32370001 0.028333999 -1.1234 4284682060
0.32580999 0.028339 -1.1235 4284682060
0.32791999 0.028343 -1.1237 4284682060
0.32923001 0.028301001 -1.1221 4284682060
0.33254001 0.028375 -1.125 4284682060
0.34569001 0.028421 -1.1267999 4284682060
0.34740999 0.028401 -1.126 4284682060
0.34871 0.028359 -1.1244 4284682060
0.35084 0.028362 -1.1245 4284682060
0.35297 0.028364999 -1.1246001 4284682060
0.35468 0.028346 -1.1238 4284682060
0.35766 0.028394001 -1.1258 4284682060
0.35936999 0.028374 -1.125 4284682060
0.36151001 0.028377 -1.1251 4284682060
0.36364999 0.028379999 -1.1252 4284682060
0.37309 0.028434001 -1.1273 4284682060
0.37739 0.028438 -1.1275001 4284682060
0.37867999 0.028395001 -1.1258 4284682060
0.38126999 0.028418999 -1.1267 4284682060
0.38341999 0.028421 -1.1267999 4284682060
0.3847 0.028377 -1.1251 4284682060
0.38642001 0.028356001 -1.1242 4284682060
0.38946 0.028402001 -1.1260999 4284682060
0.28536001 0.029301999 -1.1174001 4284682060
0.28852999 0.029382 -1.1205 4284682060
0.29023999 0.029364999 -1.1198 4284682060
0.29268 0.029395999 -1.1210001 4284682060
0.29365 0.029329 -1.1185 4284682060
0.29685 0.029408 -1.1215 4284682060
0.30976 0.029468 -1.1238 4284682060
0.31186 0.029474 -1.124 4284682060
0.31319001 0.029431 -1.1224 4284682060
0.31529 0.029436 -1.1226 4284682060
0.31988001 0.029471001 -1.1239001 4284682060
0.32159001 0.029452 -1.1231 4284682060
0.32330999 0.029433001 -1.1224 4284682060
0.32620001 0.029486001 -1.1244 4284682060
0.32870999 0.029514 -1.1255 4284682060
0.33214 0.029475 -1.124 4284682060
0.33386001 0.029455001 -1.1233 4284682060
0.33849999 0.029487999 -1.1245 4284682060
0.34062001 0.029492 -1.1247 4284682060
0.34193 0.029448001 -1.123 4284682060
0.34487 0.029499 -1.125 4284682060
0.34575999 0.029431 -1.1224 4284682060
0.34746999 0.029410999 -1.1216 4284682060
0.35084 0.029486001 -1.1245 4284682060
0.35297 0.029488999 -1.1246001 4284682060
0.35510001 0.029493 -1.1247 4284682060
0.35723999 0.029495999 -1.1248 4284682060
0.35853001 0.029451 -1.1231 4284682060
0.36151001 0.029501 -1.125 4284682060
0.36449999 0.029552 -1.127 4284682060
0.37481001 0.02954 -1.1265 4284682060
0.37696001 0.029541999 -1.1266 4284682060
0.37955001 0.029567 -1.1275001 4284682060
0.38126999 0.029545 -1.1267 4284682060
0.38255 0.0295 -1.125 4284682060
0.3847 0.029501 -1.125 4284682060
0.38817999 0.029572999 -1.1278 4284682060
0.28608999 0.030463001 -1.1193 4284682060
0.28816 0.030470001 -1.1195 4284682060
0.2895 0.030425999 -1.1179 4284682060
0.29120001 0.030408001 -1.1173 4284682060
0.29291001 0.030389 -1.1166 4284682060
0.29685 0.030522 -1.1215 4284682060
0.32080999 0.030517001 -1.1213 4284682060
0.32251999 0.030497 -1.1205 4284682060
0.32422999 0.030477 -1.1198 4284682060
0.32712001 0.030532001 -1.1217999 4284682060
0.32962999 0.030562 -1.1229 4284682060
0.33173999 0.030565999 -1.1231 4284682060
0.33425999 0.030595999 -1.1242 4284682060
0.33638 0.0306 -1.1243 4284682060
0.33809 0.030579999 -1.1236 4284682060
0.33981001 0.030559 -1.1228 4284682060
0.34233001 0.030587999 -1.1239001 4284682060
0.34364 0.030541999 -1.1222 4284682060
0.34535 0.030521 -1.1214 4284682060
0.34746999 0.030525001 -1.1216 4284682060
0.35084 0.030603001 -1.1244 4284682060
0.35297 0.030606 -1.1246001 4284682060
0.35427001 0.03056 -1.1229 4284682060
0.35681999 0.030587999 -1.1239001 4284682060
0.35894999 0.030591 -1.124 4284682060
0.36151001 0.030618999 -1.125 4284682060
0.3628 0.030572001 -1.1233 4284682060
0.38038999 0.030615 -1.1249 4284682060
0.38558 0.030667 -1.1267999 4284682060
0.38863 0.030718001 -1.1287 4284682060
0.38902 0.030621 -1.1251 4284682060
0.38940001 0.030525001 -1.1216 4284682060
0.28852999 0.031599998 -1.1204 4284682060
0.29023999 0.031580999 -1.1198 4284682060
0.29231 0.031587999 -1.12 4284682060
0.29402 0.031569 -1.1193 4284682060
0.29646999 0.031601999 -1.1205 4284682060
0.31373999 0.031553999 -1.1188 4284682060
0.31661001 0.031612001 -1.1209 4284682060
0.32172999 0.031551 -1.1187 4284682060
0.32462001 0.031608 -1.1207 4284682060
0.32673001 0.031613 -1.1209 4284682060
0.32804 0.031566001 -1.1192 4284682060
0.33054 0.031597 -1.1203001 4284682060
0.33386001 0.031679001 -1.1232001 4284682060
0.33597001 0.031684 -1.1234 4284682060
0.33809 0.031688001 -1.1235 4284682060
0.33899 0.031615 -1.1210001 4284682060
0.34193 0.031670999 -1.1229 4284682060
0.34404999 0.031675 -1.1231 4284682060
0.34575999 0.031652998 -1.1223 4284682060
0.34911999 0.031734001 -1.1252 4284682060
0.35084 0.031711999 -1.1244 4284682060
0.35297 0.031714998 -1.1245 4284682060
0.35427001 0.031668 -1.1228 4284682060
0.35640001 0.031670999 -1.1229 4284682060
0.35811001 0.031649001 -1.1222 4284682060
0.3628 0.031679999 -1.1233 4284682060
0.3847 0.031727999 -1.125 4284682060
0.38730001 0.031755 -1.1259 4284682060
0.38902 0.031730998 -1.1251 4284682060
0.29402 0.032687999 -1.1193 4284682060
0.29685 0.032749001 -1.1214 4284682060
0.31621999 0.032706 -1.1199 4284682060
0.31753999 0.032658 -1.1183 4284682060
0.32172999 0.032669 -1.1186 4284682060
0.32501999 0.032754999 -1.1216 4284682060
0.32712001 0.032760002 -1.1217999 4284682060
0.32883 0.032738 -1.1210001 4284682060
0.33094001 0.032742999 -1.1212 4284682060
0.33305001 0.032747999 -1.1214 4284682060
0.33517 0.032752998 -1.1215 4284682060
0.33688 0.032731 -1.1208 4284682060
0.33818001 0.032682002 -1.1191 4284682060
0.34029001 0.032685999 -1.1193 4284682060
0.34323001 0.032744002 -1.1212 4284682060
0.34698999 0.032855 -1.125 4284682060
0.34871 0.032832 -1.1242 4284682060
0.34959 0.032756001 -1.1216 4284682060
0.35214001 0.032786001 -1.1227 4284682060
0.35385001 0.032763001 -1.1219 4284682060
0.35598001 0.032767002 -1.122 4284682060
0.35769001 0.032744002 -1.1212 4284682060
0.36067 0.0328 -1.1231 4284682060
0.3628 0.032802999 -1.1232001 4284682060
0.31490001 0.033888999 -1.1215 4284682060
0.317 0.033895001 -1.1217 4284682060
0.31753999 0.03379 -1.1181999 4284682060
0.32133999 0.033774 -1.1177 4284682060
0.32541001 0.033918001 -1.1224999 4284682060
0.32712001 0.033895999 -1.1217 4284682060
0.32844001 0.033845998 -1.1201 4284682060
0.33054 0.033851001 -1.1202 4284682060
0.33305001 0.033884 -1.1213 4284682060
