# .PCD v0.7 - Point Cloud Data file format
VERSION 0.7
FIELDS x y z rgb
SIZE 4 4 4 4
TYPE F F F U
COUNT 1 1 1 1
WIDTH 557
HEIGHT 1
VIEWPOINT 0 0 0 1 0 0 0
POINTS 557
DATA ascii
-0.70482999 -0.046417002 -1.0842 4287099049
-0.70371997 -0.046498001 -1.0861 4287099049
-0.70261002 -0.046579 -1.0880001 4287099049
-0.70919001 -0.045361999 -1.0874 4287099049
-0.70537001 -0.045265999 -1.0851001 4287099049
-0.70209998 -0.045205001 -1.0836 4287099049
-0.69937998 -0.045178998 -1.0829999 4287099049
-0.70700997 -0.044105999 -1.084 4287099049
-0.70537001 -0.044149 -1.0851001 4287099049
-0.70156002 -0.044055 -1.0828 4287099049
-0.69884002 -0.04403 -1.0822001 4287099049
-0.69612002 -0.044004001 -1.0815001 4287099049
-0.69393998 -0.044011999 -1.0817 4287099049
-0.69497001 -0.044225998 -1.087 4287099049
-0.68848002 -0.044103999 -1.084 4287099049
-0.70647001 -0.043003 -1.0833 4287099049
-0.70209998 -0.043019999 -1.0836999 4287099049
-0.69990999 -0.043028999 -1.0839 4287099049
-0.69773 -0.043037001 -1.0841 4287099049
-0.69716001 -0.043145999 -1.0868 4287099049
-0.68794 -0.043001 -1.0832 4287099049
-0.70428002 -0.041965 -1.0835 4287099049
-0.70264 -0.042006001 -1.0846 4287099049
-0.70099002 -0.042047001 -1.0856 4287099049
-0.69933999 -0.042087998 -1.0867 4287099049
-0.69448 -0.041933 -1.0827 4287099049
-0.69444001 -0.042071 -1.0862 4287099049
-0.68958998 -0.041914999 -1.0822001 4287099049
-0.68794 -0.041955002 -1.0832 4287099049
-0.70701998 -0.040821999 -1.0806 4287099049
-0.70484 -0.040831 -1.0808001 4287099049
-0.70319998 -0.040871002 -1.0819 4287099049
-0.70156002 -0.040910002 -1.0829 4287099049
-0.70045 -0.040982001 -1.0848 4287099049
-0.69773 -0.040957998 -1.0842 4287099049
-0.69501001 -0.040934 -1.0835 4287099049
-0.69283003 -0.040941 -1.0836999 4287099049
-0.69172001 -0.041012 -1.0856 4287099049
-0.68848002 -0.040956002 -1.0841 4287099049
-0.70538002 -0.039771002 -1.0817 4287099049
-0.70319998 -0.039779 -1.0819 4287099049
-0.70102 -0.039786998 -1.0821 4287099049
-0.69775999 -0.039733 -1.0807 4287099049
-0.69612002 -0.039771002 -1.0817 4287099049
-0.69448 -0.039810002 -1.0827 4287099049
-0.69230002 -0.039817002 -1.0829 4287099049
-0.69011998 -0.039824001 -1.0831 4287099049
-0.68741 -0.039799999 -1.0825 4287099049
-0.70920998 -0.038571998 -1.0804 4287099049
-0.70757002 -0.03861 -1.0815001 4287099049
-0.70592999 -0.038648002 -1.0826 4287099049
-0.70319998 -0.038626 -1.082 4287099049
-0.69831997 -0.038484 -1.0779999 4287099049
-0.69613999 -0.038490999 -1.0782 4287099049
-0.69558001 -0.038587999 -1.0809 4287099049
-0.69393998 -0.038626 -1.0819 4287099049
-0.69123 -0.038601998 -1.0813 4287099049
-0.68799001 -0.038548999 -1.0798 4287099049
-0.71357 -0.037323002 -1.0764 4287099049
-0.71030003 -0.037397001 -1.0786 4287099049
-0.70866001 -0.037434001 -1.0796 4287099049
-0.70648003 -0.037441999 -1.0799 4287099049
-0.70429999 -0.037450001 -1.0801001 4287099049
-0.70266002 -0.037487 -1.0812 4287099049
-0.69994003 -0.037464999 -1.0805 4287099049
-0.6983 -0.037501 -1.0816 4287099049
-0.69558001 -0.037478998 -1.0809 4287099049
-0.69287002 -0.037457 -1.0803 4287099049
-0.69123 -0.037493002 -1.0813 4287099049
-0.68958998 -0.037528999 -1.0824 4287099049
-0.71192998 -0.036283001 -1.0775 4287099049
-0.70920002 -0.036263 -1.0769 4287099049
-0.70757002 -0.036299001 -1.0779999 4287099049
-0.70538998 -0.036307 -1.0782 4287099049
-0.70376003 -0.036341999 -1.0793 4287099049
-0.70103002 -0.036320999 -1.0786999 4287099049
-0.69885999 -0.036327999 -1.0789 4287099049
-0.69775999 -0.036392 -1.0808001 4287099049
-0.69503999 -0.036370002 -1.0801001 4287099049
-0.69287002 -0.036377002 -1.0803 4287099049
-0.69123 -0.036412001 -1.0814 4287099049
-0.68905002 -0.036417998 -1.0816 4287099049
-0.71302998 -0.035252001 -1.0793 4287099049
-0.70920002 -0.035177998 -1.077 4287099049
-0.70757002 -0.035213001 -1.0779999 4287099049
-0.70594001 -0.035248 -1.0791 4287099049
-0.70376003 -0.035255 -1.0793 4287099049
-0.70157999 -0.035262 -1.0795 4287099049
-0.69940001 -0.035269 -1.0798 4287099049
-0.69775999 -0.035303 -1.0808001 4287099049
-0.69612002 -0.035337999 -1.0819 4287099049
-0.6918 -0.035234001 -1.0786999 4287099049
-0.68962997 -0.035239998 -1.0789 4287099049
-0.71302998 -0.034159999 -1.0793 4287099049
-0.71030003 -0.034141 -1.0786999 4287099049
-0.70757002 -0.034122001 -1.0781 4287099049
-0.70701998 -0.034208 -1.0808001 4287099049
-0.70376003 -0.034162 -1.0793999 4287099049
-0.70157999 -0.034169 -1.0796 4287099049
-0.69994003 -0.034201998 -1.0806 4287099049
-0.69668001 -0.034155998 -1.0792 4287099049
-0.69235998 -0.034054998 -1.076 4287099049
-0.69019002 -0.034061 -1.0762 4287099049
-0.71248001 -0.033057999 -1.0785 4287099049
-0.70810997 -0.032962002 -1.0754 4287099049
-0.70648003 -0.032995 -1.0764 4287099049
-0.70485002 -0.033027999 -1.0775 4287099049
-0.70376003 -0.033085998 -1.0793999 4287099049
-0.70049 -0.033041 -1.0779001 4287099049
-0.69778001 -0.033022001 -1.0773 4287099049
-0.69559997 -0.033027999 -1.0775 4287099049
-0.69288999 -0.033008002 -1.0769 4287099049
-0.6918 -0.033066001 -1.0786999 4287099049
-0.70920002 -0.031950999 -1.0771 4287099049
-0.70592999 -0.031908002 -1.0756 4287099049
-0.70321 -0.031890001 -1.075 4287099049
-0.70321 -0.031996001 -1.0786 4287099049
-0.69994998 -0.031952001 -1.0771 4287099049
-0.69724 -0.031932998 -1.0765001 4287099049
-0.69559997 -0.031964 -1.0775 4287099049
-0.69397002 -0.031994998 -1.0786 4287099049
-0.71247 -0.030826 -1.075 4287099049
-0.71083999 -0.030857 -1.076 4287099049
-0.70866001 -0.030864 -1.0763 4287099049
-0.70484 -0.030797999 -1.074 4287099049
-0.70266998 -0.030804999 -1.0742 4287099049
-0.69994998 -0.030787 -1.0736001 4287099049
-0.69832999 -0.030817 -1.0746 4287099049
-0.69669998 -0.030847 -1.0757 4287099049
-0.69558001 -0.031004 -1.0811 4287099049
-0.71357 -0.029812001 -1.0767 4287099049
-0.71083999 -0.029796001 -1.0761 4287099049
-0.70866001 -0.029802 -1.0763 4287099049
-0.70484 -0.029739 -1.074 4287099049
-0.70266998 -0.029744999 -1.0742 4287099049
-0.70104003 -0.029774001 -1.0753 4287099049
-0.69832999 -0.029757001 -1.0747 4287099049
-0.69669998 -0.029786 -1.0757 4287099049
-0.69453001 -0.029790999 -1.0759 4287099049
-0.71464998 -0.028681999 -1.0748 4287099049
-0.71192002 -0.028666001 -1.0742 4287099049
-0.71139002 -0.02874 -1.0769 4287099049
-0.70756 -0.028679 -1.0747 4287099049
-0.70428997 -0.02864 -1.0732 4287099049
-0.70321 -0.028690999 -1.0750999 4287099049
-0.70266998 -0.028764 -1.0778 4287099049
-0.69887 -0.028702 -1.0755 4287099049
-0.69453001 -0.028618 -1.0724 4287099049
-0.69344997 -0.028667999 -1.0743001 4287099049
-0.69075 -0.028650999 -1.0736001 4287099049
-0.71354002 -0.027550999 -1.0731 4287099049
-0.71081001 -0.027535999 -1.0726 4287099049
-0.71029001 -0.027605999 -1.0753 4287099049
-0.70756 -0.027590999 -1.0747 4287099049
-0.70428997 -0.027554 -1.0732 4287099049
-0.70321 -0.027602 -1.0750999 4287099049
-0.70157999 -0.027628999 -1.0762 4287099049
-0.69669998 -0.027527001 -1.0721999 4287099049
-0.69453001 -0.027532 -1.0724 4287099049
-0.69291002 -0.027558999 -1.0735 4287099049
-0.69128001 -0.027586 -1.0745 4287099049
-0.68857998 -0.027569 -1.0738 4287099049
-0.71247 -0.026536999 -1.0750999 4287099049
-0.70973998 -0.026521999 -1.0745 4287099049
-0.70756 -0.026528001 -1.0747 4287099049
-0.70484 -0.026512999 -1.0741 4287099049
-0.70321 -0.026539 -1.0752 4287099049
-0.70157999 -0.026565 -1.0762 4287099049
-0.69887 -0.026549 -1.0756 4287099049
-0.69562 -0.026512999 -1.0741 4287099049
-0.69291002 -0.026497001 -1.0735 4287099049
-0.69182003 -0.026543999 -1.0754 4287099049
-0.68965 -0.026548 -1.0756 4287099049
-0.71627003 -0.025459001 -1.0738 4287099049
-0.71244001 -0.025405999 -1.0714999 4287099049
-0.71081001 -0.025431 -1.0726 4287099049
-0.70973998 -0.025475999 -1.0745 4287099049
-0.70756 -0.025482001 -1.0747 4287099049
-0.70212001 -0.025451999 -1.0735 4287099049
-0.69994998 -0.025458001 -1.0737 4287099049
-0.69669998 -0.025423 -1.0723 4287099049
-0.69562 -0.025467001 -1.0741 4287099049
-0.69344997 -0.025472 -1.0743001 4287099049
-0.69075 -0.025457 -1.0737 4287099049
-0.68804997 -0.025441 -1.073 4287099049
-0.68695003 -0.025486 -1.0749 4287099049
-0.68479002 -0.025490001 -1.0750999 4287099049
-0.71517003 -0.024351001 -1.0721 4287099049
-0.71298999 -0.024356 -1.0724 4287099049
-0.71136999 -0.024381001 -1.0735 4287099049
-0.70973998 -0.024405001 -1.0745 4287099049
-0.70647001 -0.024372 -1.0731 4287099049
-0.70428997 -0.024377 -1.0733 4287099049
-0.70157999 -0.024363 -1.0727 4287099049
-0.69994998 -0.024387 -1.0738 4287099049
-0.69724 -0.024373 -1.0731 4287099049
-0.69562 -0.024397001 -1.0742 4287099049
-0.69398999 -0.024420001 -1.0752 4287099049
-0.69075 -0.024386 -1.0737 4287099049
-0.68751001 -0.024351999 -1.0721999 4287099049
-0.68373001 -0.02438 -1.0734 4287099049
-0.71408999 -0.023306999 -1.0741 4287099049
-0.71081001 -0.023275999 -1.0727 4287099049
-0.70809001 -0.023263 -1.0721 4287099049
-0.70647001 -0.023286 -1.0731 4287099049
-0.70375001 -0.023272 -1.0725 4287099049
-0.70266998 -0.023313001 -1.0743999 4287099049
-0.69994998 -0.0233 -1.0738 4287099049
-0.69832999 -0.023322999 -1.0748 4287099049
-0.69562 -0.023309 -1.0742 4287099049
-0.69398999 -0.023332 -1.0752 4287099049
-0.69235998 -0.023353999 -1.0763 4287099049
-0.68965 -0.02334 -1.0756 4287099049
-0.68426001 -0.023311 -1.0743001 4287099049
-0.71244001 -0.022142 -1.0716 4287099049
-0.70971 -0.022128999 -1.071 4287099049
-0.70809001 -0.022151001 -1.0721 4287099049
-0.70647001 -0.022173 -1.0731 4287099049
-0.70428997 -0.022178 -1.0734 4287099049
-0.70157999 -0.022165 -1.0727 4287099049
-0.69941002 -0.02217 -1.073 4287099049
-0.69778001 -0.022190999 -1.074 4287099049
-0.69398999 -0.022143001 -1.0717 4287099049
-0.69182998 -0.022147 -1.0719 4287099049
-0.68965 -0.022225 -1.0756 4287099049
-0.68748999 -0.022229001 -1.0757999 4287099049
-0.68426001 -0.022198001 -1.0743001 4287099049
-0.71460998 -0.021009 -1.0714 4287099049
-0.71298999 -0.021029999 -1.0725 4287099049
-0.70971 -0.021002 -1.071 4287099049
-0.70753998 -0.021005999 -1.0713 4287099049
-0.70481998 -0.020994 -1.0707 4287099049
-0.70156002 -0.020966001 -1.0692 4287099049
-0.69994003 -0.020987 -1.0703 4287099049
-0.69778001 -0.020990999 -1.0705 4287099049
-0.69669998 -0.021028001 -1.0724 4287099049
-0.69507003 -0.021048 -1.0734 4287099049
-0.69182998 -0.021019001 -1.0719 4287099049
-0.69020998 -0.021039 -1.0729001 4287099049
-0.68804997 -0.021043001 -1.0731 4287099049
-0.68535 -0.021029999 -1.0725 4287099049
-0.71460998 -0.019974999 -1.0714 4287099049
-0.71298999 -0.019995 -1.0725 4287099049
-0.70971 -0.019967999 -1.0711 4287099049
-0.70643997 -0.019942001 -1.0696 4287099049
-0.70372999 -0.019929999 -1.069 4287099049
-0.70156002 -0.019934 -1.0692 4287099049
-0.69884998 -0.019923 -1.0686001 4287099049
-0.69669002 -0.019927001 -1.0688 4287099049
-0.69507003 -0.019946 -1.0699 4287099049
-0.69507003 -0.020013001 -1.0734 4287099049
-0.69291002 -0.020016 -1.0736001 4287099049
-0.69020998 -0.020004001 -1.073 4287099049
-0.68751001 -0.019991999 -1.0723 4287099049
-0.71568 -0.018948 -1.0695 4287099049
-0.71240002 -0.018923 -1.0681 4287099049
-0.71188998 -0.018971 -1.0707999 4287099049
-0.70861 -0.018945999 -1.0694 4287099049
-0.70643997 -0.01895 -1.0696 4287099049
-0.70262998 -0.018909 -1.0673 4287099049
-0.70266002 -0.018973 -1.0709 4287099049
-0.69831002 -0.018917 -1.0678 4287099049
-0.69831997 -0.01898 -1.0713 4287099049
-0.69453001 -0.018939 -1.069 4287099049
-0.69237 -0.018943001 -1.0692 4287099049
-0.68967998 -0.018931 -1.0686001 4287099049
-0.6886 -0.018965 -1.0705 4287099049
-0.68751001 -0.018998001 -1.0723 4287099049
-0.71346003 -0.017836999 -1.0662 4287099049
-0.71350998 -0.017897001 -1.0698 4287099049
-0.71078002 -0.017887 -1.0692 4287099049
-0.70915997 -0.017905001 -1.0703 4287099049
-0.70590001 -0.017881 -1.0688 4287099049
-0.70318002 -0.017871 -1.0682 4287099049
-0.70210999 -0.017903 -1.0700999 4287099049
-0.69940001 -0.017891999 -1.0695 4287099049
-0.69831997 -0.017924 -1.0714 4287099049
-0.69616002 -0.017927 -1.0716 4287099049
-0.69291002 -0.017902 -1.0700999 4287099049
-0.68967998 -0.017878 -1.0686001 4287099049
-0.68752003 -0.017881 -1.0688 4287099049
-0.68589997 -0.017898001 -1.0698 4287099049
-0.71406001 -0.016922999 -1.0706 4287099049
-0.71188998 -0.016927 -1.0709 4287099049
-0.70861 -0.016904 -1.0694 4287099049
-0.70643997 -0.016907999 -1.0697 4287099049
-0.70372999 -0.016898001 -1.0691 4287099049
-0.70210999 -0.016914999 -1.0700999 4287099049
-0.69994003 -0.016918 -1.0703 4287099049
-0.69669002 -0.016895 -1.0689 4287099049
-0.69507003 -0.016912 -1.0699 4287099049
-0.69237 -0.016902 -1.0693001 4287099049
-0.69075 -0.016918 -1.0703 4287099049
-0.6886 -0.016921001 -1.0705 4287099049
-0.68643999 -0.016923999 -1.0707 4287099049
-0.71184999 -0.015675001 -1.0673 4287099049
-0.71022999 -0.015690999 -1.0684 4287099049
-0.70750999 -0.015682001 -1.0678 4287099049
-0.70480001 -0.015673 -1.0671999 4287099049
-0.70372999 -0.015701 -1.0691 4287099049
-0.69777 -0.01567 -1.067 4287099049
-0.69560999 -0.015673 -1.0671999 4287099049
-0.69344997 -0.015675999 -1.0674 4287099049
-0.69237 -0.015704 -1.0693001 4287099049
-0.69022 -0.015706999 -1.0695 4287099049
-0.68752003 -0.015697001 -1.0688 4287099049
-0.68643999 -0.015724 -1.0707 4287099049
-0.71568 -0.014625 -1.0696 4287099049
-0.71240002 -0.014606 -1.0682 4287099049
-0.71022999 -0.014609 -1.0684 4287099049
-0.70750999 -0.014601 -1.0678 4287099049
-0.70153999 -0.014572 -1.0657001 4287099049
-0.69883001 -0.014564 -1.0651 4287099049
-0.69722003 -0.014578 -1.0662 4287099049
-0.69506001 -0.014581 -1.0664001 4287099049
-0.69344997 -0.014595 -1.0674 4287099049
-0.69182998 -0.01461 -1.0685 4287099049
-0.68967998 -0.014612 -1.0686001 4287099049
-0.68698001 -0.014603 -1.068 4287099049
-0.68643999 -0.01464 -1.0707 4287099049
-0.71568 -0.013678 -1.0696 4287099049
-0.71184999 -0.013649 -1.0673 4287099049
-0.71022999 -0.013663 -1.0684 4287099049
-0.70750999 -0.013655 -1.0678 4287099049
-0.70424998 -0.013637 -1.0664001 4287099049
-0.70209002 -0.013639 -1.0666 4287099049
-0.70046997 -0.013653 -1.0676 4287099049
-0.69884998 -0.013666 -1.0687 4287099049
-0.69560999 -0.013648 -1.0671999 4287099049
-0.69453001 -0.013672 -1.0691 4287099049
-0.69237 -0.013674 -1.0693001 4287099049
-0.69075 -0.013687 -1.0703 4287099049
-0.68752003 -0.013668 -1.0689 4287099049
-0.71562999 -0.012505 -1.066 4287099049
-0.71346003 -0.012508 -1.0663 4287099049
-0.71129 -0.012511 -1.0664999 4287099049
-0.70801997 -0.012494 -1.0651 4287099049
-0.70476002 -0.012477 -1.0635999 4287099049
-0.70424998 -0.012509 -1.0664001 4287099049
-0.70262998 -0.012522 -1.0674 4287099049
-0.70046997 -0.012524 -1.0677 4287099049
-0.69884998 -0.012537 -1.0687 4287099049
-0.69615 -0.012529 -1.0681 4287099049
-0.69398999 -0.012532 -1.0683 4287099049
-0.69129002 -0.012524 -1.0676 4287099049
-0.68805999 -0.012507 -1.0661 4287099049
-0.68537003 -0.012499 -1.0655 4287099049
-0.71674001 -0.011449 -1.0677 4287099049
-0.71346003 -0.011434 -1.0663 4287099049
-0.71129 -0.011436 -1.0664999 4287099049
-0.70747 -0.011412 -1.0642999 4287099049
-0.70310998 -0.011379 -1.0612 4287099049
-0.70370001 -0.011426 -1.0656 4287099049
-0.70099002 -0.011419 -1.0649 4287099049
-0.69828999 -0.011413 -1.0642999 4287099049
-0.69612998 -0.011415 -1.0645 4287099049
-0.69560999 -0.011444 -1.0673 4287099049
-0.69344997 -0.011446 -1.0675 4287099049
-0.6886 -0.011441 -1.067 4287099049
-0.68483001 -0.011416 -1.0647 4287099049
-0.71291 -0.010429 -1.0655 4287099049
-0.71073997 -0.010431 -1.0657001 4287099049
-0.70801997 -0.010426 -1.0651 4287099049
-0.70640999 -0.010436 -1.0662 4287099049
-0.70314997 -0.010422 -1.0647 4287099049
-0.69989997 -0.010408 -1.0633 4287099049
-0.69718999 -0.010401 -1.0627 4287099049
-0.69668001 -0.010428 -1.0654 4287099049
-0.69669002 -0.010463 -1.0689 4287099049
-0.69344997 -0.010449 -1.0675 4287099049
-0.69020998 -0.010434 -1.066 4287099049
-0.68645 -0.010446 -1.0671999 4287099049
-0.71340001 -0.0092048002 -1.0627 4287099049
-0.71179998 -0.0092141004 -1.0638 4287099049
-0.71019 -0.0092233997 -1.0649 4287099049
-0.70857 -0.0092326999 -1.066 4287099049
-0.70750999 -0.0092491005 -1.0678999 4287099049
-0.70424998 -0.0092366003 -1.0664001 4287099049
-0.69880003 -0.0091950996 -1.0616 4287099049
-0.69774002 -0.0092113996 -1.0635 4287099049
-0.69612998 -0.0092204995 -1.0645 4287099049
-0.69452 -0.0092294998 -1.0656 4287099049
-0.69128001 -0.0092166997 -1.0641 4287099049
-0.69075 -0.0092401998 -1.0668 4287099049
-0.71772999 -0.0081249997 -1.0623 4287099049
-0.71395999 -0.0081351995 -1.0635999 4287099049
-0.71291 -0.0081497002 -1.0655 4287099049
-0.71073997 -0.0081516001 -1.0657001 4287099049
-0.71022999 -0.0081724999 -1.0685 4287099049
-0.70696002 -0.0081615001 -1.067 4287099049
-0.70204997 -0.0081313001 -1.0631 4287099049
-0.69935 -0.0081265997 -1.0625 4287099049
-0.69828999 -0.0081409998 -1.0642999 4287099049
-0.69668001 -0.0081489999 -1.0654 4287099049
-0.71507001 -0.0072049 -1.0653 4287099049
-0.71402001 -0.0072177998 -1.0671999 4287099049
-0.71129 -0.0072138002 -1.0666 4287099049
-0.70912999 -0.0072154002 -1.0668 4287099049
-0.70530999 -0.0071999999 -1.0645 4287099049
-0.70204997 -0.0071902 -1.0631 4287099049
-0.70099002 -0.0072030001 -1.0650001 4287099049
-0.69828999 -0.0071987999 -1.0644 4287099049
-0.69668001 -0.0072058998 -1.0654 4287099049
-0.71723998 -0.0060779001 -1.0650001 4287099049
-0.71228999 -0.0060557001 -1.0611 4287099049
-0.71012998 -0.0060569998 -1.0613 4287099049
-0.70853001 -0.0060631 -1.0624 4287099049
-0.70582002 -0.0060597002 -1.0618 4287099049
-0.70476002 -0.0060704998 -1.0637 4287099049
-0.7026 -0.0060717999 -1.0639 4287099049
-0.71395999 -0.0050067999 -1.0635999 4287099049
-0.70958 -0.0049923002 -1.0605 4287099049
-0.70797002 -0.0049973 -1.0616 4287099049
-0.70692003 -0.0050062998 -1.0635 4287099049
-0.70530999 -0.0050113001 -1.0645 4287099049
-0.7015 -0.0050005 -1.0623 4287099049
-0.69989997 -0.0050054998 -1.0633 4287099049
-0.69665003 -0.0049986001 -1.0619 4287099049
-0.71613002 -0.0039152 -1.0634 4287099049
-0.71228999 -0.0039069001 -1.0611 4287099049
-0.70958 -0.0039047 -1.0605 4287099049
-0.70797002 -0.0039086002 -1.0616 4287099049
-0.70801997 -0.0039217998 -1.0652 4287099049
-0.70476002 -0.0039165001 -1.0637 4287099049
-0.7015 -0.0039110999 -1.0623 4287099049
-0.69880003 -0.0039089001 -1.0616 4287099049
-0.69665003 -0.0039096 -1.0619 4287099049
-0.69503999 -0.0039134999 -1.0628999 4287099049
-0.71605998 -0.0028317 -1.0598 4287099049
-0.71445 -0.0028345999 -1.0609 4287099049
-0.71228999 -0.0028353001 -1.0611 4287099049
-0.71012998 -0.0028359001 -1.0614001 4287099049
-0.70630997 -0.0028299 -1.0591 4287099049
-0.70582002 -0.0028372 -1.0618 4287099049
-0.70310998 -0.0028355001 -1.0612 4287099049
-0.70039999 -0.0028339 -1.0606 4287099049
-0.69880003 -0.0028367001 -1.0617 4287099049
-0.69665003 -0.0028373001 -1.0619 4287099049
-0.69503999 -0.0028401001 -1.0628999 4287099049
-0.71556997 -0.0017771 -1.0625 4287099049
-0.71395999 -0.0017789 -1.0635999 4287099049
-0.71123999 -0.0017779 -1.063 4287099049
-0.70741999 -0.0017741 -1.0608 4287099049
-0.70471001 -0.0017731 -1.0602 4287099049
-0.70090997 -0.0017693 -1.0579 4287099049
-0.69875997 -0.0017696 -1.0581 4287099049
-0.69716001 -0.0017714 -1.0591 4287099049
-0.69555998 -0.0017731 -1.0602 4287099049
-0.69559002 -0.0017791 -1.0637 4287099049
-0.71605998 -0.00082577998 -1.0598 4287099049
-0.71613002 -0.00082855998 -1.0634 4287099049
-0.71451998 -0.00082940003 -1.0644 4287099049
-0.71179998 -0.00082894001 -1.0639 4287099049
-0.70797002 -0.00082717999 -1.0616 4287099049
-0.70525998 -0.00082671002 -1.061 4287099049
-0.70310998 -0.00082689 -1.0612 4287099049
-0.69875997 -0.00082444999 -1.0581 4287099049
-0.69716001 -0.00082527002 -1.0591 4287099049
-0.69555998 -0.00082607998 -1.0602 4287099049
-0.69559002 -0.00082885998 -1.0638 4287099049
-0.69452 -0.00083033001 -1.0656 4287099049
-0.71613002 0.00032595001 -1.0634 4287099049
-0.71117997 0.00032476001 -1.0595 4287099049
-0.70846999 0.00032458 -1.0589 4287099049
-0.70520997 0.00032414001 -1.0574 4287099049
-0.70305997 0.00032421001 -1.0577 4287099049
-0.70366001 0.00032555001 -1.0621001 4287099049
-0.70039999 0.00032511001 -1.0606 4287099049
-0.69716001 0.00032466001 -1.0591 4287099049
-0.71540999 0.0013731 -1.0554 4287099049
-0.71661001 0.0013799 -1.0606 4287099049
-0.71278 0.001377 -1.0584 4287099049
-0.71007001 0.0013762 -1.0578001 4287099049
-0.70846999 0.0013776 -1.0589 4287099049
-0.70687002 0.001379 -1.0599 4287099049
-0.70305997 0.001376 -1.0577 4287099049
-0.70146 0.0013774 -1.0587 4287099049
-0.69985998 0.0013788 -1.0598 4287099049
-0.69935 0.0013823 -1.0625 4287099049
-0.71766001 0.0023298 -1.0587 4287099049
-0.71438003 0.0023266999 -1.0573 4287099049
-0.71278 0.002329 -1.0584 4287099049
-0.70894998 0.0023240999 -1.0561 4287099049
-0.70791 0.0023282999 -1.058 4287099049
-0.70576 0.0023288 -1.0583 4287099049
-0.70471001 0.0023329 -1.0602 4287099049
-0.70200998 0.0023316001 -1.0595 4287099049
-0.69821 0.0023266 -1.0573 4287099049
-0.69660997 0.0023288999 -1.0583 4287099049
-0.71877998 0.0035327 -1.0604 4287099049
-0.7155 0.0035280001 -1.059 4287099049
-0.71445 0.0035343999 -1.0609 4287099049
-0.71061999 0.0035269 -1.0585999 4287099049
-0.70791 0.0035248999 -1.058 4287099049
-0.70464998 0.0035200999 -1.0566 4287099049
-0.70415998 0.0035292001 -1.0592999 4287099049
-0.70146 0.0035272001 -1.0587 4287099049
-0.69821 0.0035224 -1.0573 4287099049
-0.69606 0.0035230999 -1.0575 4287099049
-0.71485001 0.0046228999 -1.0546 4287099049
-0.7155 0.0046422002 -1.059 4287099049
-0.71222001 0.0046359999 -1.0575 4287099049
-0.71007001 0.0046370002 -1.0578001 4287099049
-0.70576 0.0046390998 -1.0583 4287099049
-0.70305997 0.0046363999 -1.0576 4287099049
-0.69875997 0.0046383999 -1.0581 4287099049
-0.69716001 0.0046430002 -1.0591 4287099049
-0.71485001 0.0055423998 -1.0546 4287099049
-0.71661001 0.0055741998 -1.0606 4287099049
-0.71333998 0.0055668 -1.0592 4287099049
-0.71061999 0.0055637001 -1.0585999 4287099049
-0.70846999 0.0055650002 -1.0588 4287099049
-0.70520997 0.0055574002 -1.0574 4287099049
-0.70139998 0.0055455002 -1.0551 4287099049
-0.69870001 0.0055422001 -1.0545 4287099049
-0.69711 0.0055477 -1.0556 4287099049
-0.69441998 0.0055443998 -1.0549001 4287099049
-0.69227999 0.0055455002 -1.0552 4287099049
-0.71925002 0.0066371001 -1.0576 4287099049
-0.71822 0.0066491002 -1.0595 4287099049
-0.71494001 0.0066403002 -1.0581 4287099049
-0.71055001 0.0066209999 -1.0549999 4287099049
-0.70951003 0.0066328999 -1.0569 4287099049
-0.70846999 0.0066447998 -1.0588 4287099049
-0.70410001 0.0066253999 -1.0556999 4287099049
-0.70139998 0.0066216001 -1.0551 4287099049
-0.69980001 0.0066281999 -1.0562 4287099049
-0.69875997 0.0066399998 -1.0581 4287099049
-0.69551998 0.0066308002 -1.0566 4287099049
-0.69283003 0.0066268998 -1.056 4287099049
-0.71494001 0.0076675001 -1.0581 4287099049
-0.71111 0.0076513002 -1.0559 4287099049
-0.70840001 0.0076469998 -1.0553 4287099049
-0.70791 0.0076668002 -1.058 4287099049
-0.70520997 0.0076624001 -1.0574 4287099049
-0.70305997 0.0076640998 -1.0576 4287099049
-0.69980001 0.0076536001 -1.0562 4287099049
-0.69875997 0.0076672002 -1.0581 4287099049
-0.69606 0.0076627 -1.0574 4287099049
-0.69445997 0.0076703001 -1.0585001 4287099049
-0.71166003 0.0086083002 -1.0567 4287099049
-0.71007001 0.0086171003 -1.0578001 4287099049
-0.70846999 0.0086257998 -1.0588 4287099049
-0.70410001 0.0086005004 -1.0556999 4287099049
-0.70415998 0.0086294999 -1.0592999 4287099049
-0.70146 0.0086244997 -1.0587 4287099049
-0.69931 0.0086262999 -1.0589 4287099049
-0.69445997 0.0086228997 -1.0585001 4287099049
-0.69016999 0.0086262003 -1.0589 4287099049
-0.71007001 0.0098396996 -1.0578001 4287099049
-0.70569003 0.009811 -1.0547 4287099049
-0.70354998 0.0098131001 -1.0549001 4287099049
-0.70305997 0.0098384004 -1.0576 4287099049
-0.70146 0.0098483004 -1.0587 4287099049
-0.70513999 0.010955 -1.0538 4287099049
-0.70354998 0.010966 -1.0549001 4287099049
-0.70410001 0.011924 -1.0556999 4287099049
