# .PCD v0.7 - Point Cloud Data file format
VERSION 0.7
FIELDS x y z rgb
SIZE 4 4 4 4
TYPE F F F U
COUNT 1 1 1 1
WIDTH 337
HEIGHT 1
VIEWPOINT 0 0 0 1 0 0 0
POINTS 337
DATA ascii
-0.57887 -0.024791 -1.0915 4286118818
-0.57811999 -0.024851 -1.0942 4286118818
-0.57045001 -0.024785999 -1.0913 4286118818
-0.58218002 -0.023649 -1.0899 4286118818
-0.57599998 -0.023742 -1.0941 4286118818
-0.57300001 -0.023701999 -1.0923001 4286118818
-0.56923002 -0.023717999 -1.0930001 4286118818
-0.56756997 -0.023736 -1.0939 4286118818
-0.58595002 -0.022503 -1.0891 4286118818
-0.58173001 -0.022500999 -1.089 4286118818
-0.57962 -0.022500001 -1.089 4286118818
-0.57420999 -0.022534 -1.0906 4286118818
-0.57209998 -0.022531999 -1.0905 4286118818
-0.57089001 -0.022568 -1.0922 4286118818
-0.56923002 -0.022585001 -1.0931 4286118818
-0.58640999 -0.021374 -1.09 4286118818
-0.58337998 -0.021338001 -1.0882 4286118818
-0.58126998 -0.021337001 -1.0881 4286118818
-0.58007997 -0.021371 -1.0899 4286118818
-0.57841998 -0.021388 -1.0907 4286118818
-0.57630998 -0.021387 -1.0907 4286118818
-0.57466 -0.021403 -1.0915 4286118818
-0.57255 -0.021402 -1.0914 4286118818
-0.56999999 -0.021383001 -1.0905 4286118818
-0.5679 -0.021382 -1.0904 4286118818
-0.59302002 -0.020258 -1.0865999 4286118818
-0.59136999 -0.020274 -1.0874 4286118818
-0.58640999 -0.020322001 -1.09 4286118818
-0.58429998 -0.020321 -1.09 4286118818
-0.58354998 -0.020369999 -1.0926 4286118818
-0.58143997 -0.020369999 -1.0926 4286118818
-0.57841998 -0.020336 -1.0907 4286118818
-0.57586002 -0.020318 -1.0898 4286118818
-0.57466 -0.02035 -1.0915 4286118818
-0.57255 -0.020349 -1.0915 4286118818
-0.56326002 -0.02031 -1.0894001 4286118818
-0.59209001 -0.019219 -1.0848 4286118818
-0.5909 -0.01925 -1.0865999 4286118818
-0.58972001 -0.019281 -1.0883 4286118818
-0.58851999 -0.019312 -1.0901 4286118818
-0.58503002 -0.019264 -1.0874 4286118818
-0.58292001 -0.019264 -1.0872999 4286118818
-0.58126998 -0.019278999 -1.0882 4286118818
-0.57962 -0.019293999 -1.089 4286118818
-0.57797003 -0.019308001 -1.0899 4286118818
-0.57541001 -0.019292001 -1.0889 4286118818
-0.57286 -0.019275 -1.0880001 4286118818
-0.57076001 -0.019274 -1.0879 4286118818
-0.56999999 -0.01932 -1.0905 4286118818
-0.5679 -0.019319 -1.0904 4286118818
-0.56580001 -0.019316999 -1.0904 4286118818
-0.56282002 -0.019284001 -1.0885 4286118818
-0.59209001 -0.018149 -1.0848 4286118818
-0.59043998 -0.018164 -1.0857 4286118818
-0.58972001 -0.018208001 -1.0883 4286118818
-0.58851999 -0.018237 -1.0901 4286118818
-0.58548999 -0.018207001 -1.0883 4286118818
-0.58337998 -0.018206 -1.0882 4286118818
-0.58082002 -0.018191 -1.0872999 4286118818
-0.57962 -0.01822 -1.089 4286118818
-0.57797003 -0.018234 -1.0899 4286118818
-0.57586002 -0.018232999 -1.0898 4286118818
-0.57286 -0.018201999 -1.0880001 4286118818
-0.57121003 -0.018216001 -1.0888 4286118818
-0.56999999 -0.018245 -1.0905 4286118818
-0.56834 -0.018258 -1.0914 4286118818
-0.56668001 -0.018271999 -1.0922 4286118818
-0.59605998 -0.017204 -1.0884 4286118818
-0.59394997 -0.017204 -1.0884 4286118818
-0.59183002 -0.017204 -1.0884 4286118818
-0.58925003 -0.017189 -1.0875 4286118818
-0.58806002 -0.017216999 -1.0892 4286118818
-0.58503002 -0.017188 -1.0874 4286118818
-0.58292001 -0.017188 -1.0874 4286118818
-0.58082002 -0.017186999 -1.0872999 4286118818
-0.57841998 -0.017242 -1.0908 4286118818
-0.57586002 -0.017227 -1.0898 4286118818
-0.57286 -0.017198 -1.0880001 4286118818
-0.57031 -0.017183 -1.087 4286118818
-0.56954998 -0.017224001 -1.0897 4286118818
-0.56834 -0.017251 -1.0914 4286118818
-0.5909 -0.015958 -1.0865999 4286118818
-0.58972001 -0.015984001 -1.0884 4286118818
-0.58714002 -0.015970999 -1.0875 4286118818
-0.58456999 -0.015957 -1.0865 4286118818
-0.58200997 -0.015943 -1.0856 4286118818
-0.58126998 -0.015982 -1.0882 4286118818
-0.57962 -0.015993999 -1.0891 4286118818
-0.57450998 -0.015967 -1.0872 4286118818
-0.57240999 -0.015966 -1.0871 4286118818
-0.57076001 -0.015977999 -1.0880001 4286118818
-0.56910998 -0.01599 -1.0888 4286118818
-0.56700999 -0.015989 -1.0887001 4286118818
-0.58998001 -0.014834 -1.0849 4286118818
-0.58832997 -0.014846 -1.0857 4286118818
-0.58576 -0.014833 -1.0848 4286118818
-0.58366001 -0.014833 -1.0848 4286118818
-0.58200997 -0.014844 -1.0856 4286118818
-0.57990998 -0.014844 -1.0856 4286118818
-0.57735002 -0.014831 -1.0846 4286118818
-0.57571 -0.014842 -1.0855 4286118818
-0.57450998 -0.014866 -1.0872 4286118818
-0.57286 -0.014877 -1.0880001 4286118818
-0.57165003 -0.014901 -1.0898 4286118818
-0.56612003 -0.014862 -1.0869 4286118818
-0.58832997 -0.013884 -1.0857 4286118818
-0.58668 -0.013895 -1.0865999 4286118818
-0.58503002 -0.013906 -1.0875 4286118818
-0.58337998 -0.013917 -1.0883 4286118818
-0.57990998 -0.013882 -1.0856 4286118818
-0.57643998 -0.013848 -1.0829 4286118818
-0.57525003 -0.01387 -1.0846 4286118818
-0.57406002 -0.013892 -1.0863 4286118818
-0.57331002 -0.013925 -1.0889 4286118818
-0.56985998 -0.01389 -1.0862 4286118818
-0.56490999 -0.013922 -1.0887001 4286118818
-0.56326002 -0.013932 -1.0895 4286118818
-0.59842002 -0.012727 -1.085 4286118818
-0.59631002 -0.012727 -1.085 4286118818
-0.59465998 -0.012737 -1.0858001 4286118818
-0.58998001 -0.012727 -1.0849 4286118818
-0.58740997 -0.012716 -1.084 4286118818
-0.58530003 -0.012715 -1.084 4286118818
-0.58503002 -0.012757 -1.0875 4286118818
-0.58337998 -0.012767 -1.0883 4286118818
-0.58082002 -0.012756 -1.0874 4286118818
-0.57735002 -0.012724 -1.0847 4286118818
-0.57525003 -0.012723 -1.0846 4286118818
-0.57361001 -0.012733 -1.0854 4286118818
-0.57286 -0.012764 -1.0881 4286118818
-0.56458002 -0.012812 -1.0922 4286118818
-0.60266 -0.011634 -1.085 4286118818
-0.60007 -0.011625 -1.0841 4286118818
-0.59796 -0.011625 -1.0841 4286118818
-0.59583998 -0.011625 -1.0841 4286118818
-0.59420002 -0.011634 -1.085 4286118818
-0.59254998 -0.011643 -1.0858001 4286118818
-0.59043998 -0.011643 -1.0858001 4286118818
-0.58787 -0.011633 -1.0849 4286118818
-0.58622003 -0.011642 -1.0857 4286118818
-0.58503002 -0.011661 -1.0875 4286118818
-0.58337998 -0.01167 -1.0883 4286118818
-0.57854003 -0.011612 -1.0829 4286118818
-0.57690001 -0.011621 -1.0838 4286118818
-0.57661003 -0.011659 -1.0872999 4286118818
-0.57541001 -0.011678 -1.089 4286118818
-0.57331002 -0.011677 -1.089 4286118818
-0.60123998 -0.010594 -1.0824 4286118818
-0.60053998 -0.01062 -1.085 4286118818
-0.59889001 -0.010629 -1.0858999 4286118818
-0.59724998 -0.010637 -1.0867 4286118818
-0.59513003 -0.010637 -1.0867 4286118818
-0.59254998 -0.010628 -1.0858001 4286118818
-0.58998001 -0.010619 -1.0849 4286118818
-0.58740997 -0.010611 -1.084 4286118818
-0.58530003 -0.01061 -1.084 4286118818
-0.58366001 -0.010619 -1.0848 4286118818
-0.58200997 -0.010627 -1.0857 4286118818
-0.579 -0.010609 -1.0838 4286118818
-0.57735002 -0.010617 -1.0847 4286118818
-0.57571 -0.010625 -1.0855 4286118818
-0.57406002 -0.010634 -1.0864 4286118818
-0.57151002 -0.010624 -1.0854 4286118818
-0.56687999 -0.010614 -1.0844001 4286118818
-0.60077 -0.0093671996 -1.0815001 4286118818
-0.59912997 -0.0093748001 -1.0824 4286118818
-0.59749001 -0.0093823001 -1.0832 4286118818
-0.59536999 -0.0093822004 -1.0832 4286118818
-0.59325999 -0.0093820998 -1.0832 4286118818
-0.59116 -0.0093818996 -1.0832 4286118818
-0.58766001 -0.0093587004 -1.0805 4286118818
-0.58556002 -0.0093583995 -1.0805 4286118818
-0.58345997 -0.0093580997 -1.0804 4286118818
-0.58227998 -0.0093730995 -1.0822001 4286118818
-0.58109999 -0.0093881004 -1.0839 4286118818
-0.579 -0.0093876999 -1.0839 4286118818
-0.57643998 -0.0093796002 -1.0829 4286118818
-0.57435 -0.0093791001 -1.0829 4286118818
-0.57406002 -0.0094095003 -1.0864 4286118818
-0.56731999 -0.0093999999 -1.0853 4286118818
-0.56523001 -0.0093993004 -1.0852 4286118818
-0.59865999 -0.0082721002 -1.0815001 4286118818
-0.59701997 -0.0082788002 -1.0824 4286118818
-0.59491003 -0.0082786996 -1.0822999 4286118818
-0.59187001 -0.0082651004 -1.0806 4286118818
-0.58976001 -0.0082649002 -1.0805 4286118818
-0.58859003 -0.0082782004 -1.0822999 4286118818
-0.58787 -0.0082983002 -1.0849 4286118818
-0.58530003 -0.0082913004 -1.084 4286118818
-0.58227998 -0.0082774004 -1.0822001 4286118818
-0.58064002 -0.0082839001 -1.0829999 4286118818
-0.57945001 -0.0082970997 -1.0848 4286118818
-0.57735002 -0.0082967998 -1.0847 4286118818
-0.57525003 -0.0082962997 -1.0847 4286118818
-0.57225001 -0.0082822004 -1.0828 4286118818
-0.57015997 -0.0082817003 -1.0827 4286118818
-0.56897002 -0.0082948999 -1.0845 4286118818
-0.59912997 -0.0073207002 -1.0824 4286118818
-0.59654999 -0.0073147002 -1.0815001 4286118818
-0.59350002 -0.0073026 -1.0797 4286118818
-0.59325999 -0.0073263999 -1.0832 4286118818
-0.59162003 -0.0073322998 -1.0841 4286118818
-0.58951002 -0.0073321001 -1.0841 4286118818
-0.58601999 -0.0073139002 -1.0814 4286118818
-0.58392 -0.0073136999 -1.0813 4286118818
-0.58319998 -0.0073314002 -1.084 4286118818
-0.58064002 -0.0073250998 -1.0829999 4286118818
-0.57854003 -0.0073247999 -1.0829999 4286118818
-0.57554001 -0.0073123998 -1.0812 4286118818
-0.57344002 -0.0073119998 -1.0811 4286118818
-0.57225001 -0.0073237 -1.0828 4286118818
-0.57106 -0.0073353001 -1.0845 4286118818
-0.56941998 -0.0073409001 -1.0854 4286118818
-0.56731999 -0.0073404 -1.0853 4286118818
-0.56479001 -0.0073338002 -1.0843 4286118818
-0.59865999 -0.0061721001 -1.0815001 4286118818
-0.59561002 -0.0061619999 -1.0797 4286118818
-0.59443998 -0.006172 -1.0815001 4286118818
-0.59372997 -0.0061869998 -1.0841 4286118818
-0.59209001 -0.0061919 -1.085 4286118818
-0.58859003 -0.0061766002 -1.0822999 4286118818
-0.58648002 -0.0061765001 -1.0822999 4286118818
-0.58437997 -0.0061762999 -1.0822001 4286118818
-0.58227998 -0.006176 -1.0822001 4286118818
-0.57972002 -0.0061706998 -1.0813 4286118818
-0.57808 -0.0061754999 -1.0821 4286118818
-0.57554001 -0.0061701001 -1.0812 4286118818
-0.57435 -0.00618 -1.0829 4286118818
-0.57270998 -0.0061846999 -1.0836999 4286118818
-0.57106 -0.0061893999 -1.0845 4286118818
-0.56941998 -0.0061941999 -1.0854 4286118818
-0.59723997 -0.0050786999 -1.0789 4286118818
-0.59654999 -0.0050911 -1.0815001 4286118818
-0.59443998 -0.0050909999 -1.0815001 4286118818
-0.59280002 -0.0050951 -1.0824 4286118818
-0.58976001 -0.0050867 -1.0806 4286118818
-0.58719999 -0.0050824001 -1.0796 4286118818
-0.58648002 -0.0050947 -1.0822999 4286118818
-0.58484 -0.0050987001 -1.0831 4286118818
-0.58274001 -0.0050985999 -1.0831 4286118818
-0.57854003 -0.0050980998 -1.0829999 4286118818
-0.57525003 -0.0051060002 -1.0847 4286118818
-0.57225001 -0.0050972998 -1.0828 4286118818
-0.56941998 -0.0051092999 -1.0854 4286118818
-0.56687999 -0.0051048002 -1.0844001 4286118818
-0.59723997 -0.0039722999 -1.0789 4286118818
-0.59608001 -0.0039786999 -1.0806 4286118818
-0.59397 -0.0039786999 -1.0806 4286118818
-0.59187001 -0.0039785998 -1.0806 4286118818
-0.58976001 -0.0039785001 -1.0806 4286118818
-0.58811998 -0.0039817002 -1.0814 4286118818
-0.583 -0.0039749001 -1.0796 4286118818
-0.57880998 -0.0039746002 -1.0795 4286118818
-0.57854003 -0.0039875 -1.0829999 4286118818
-0.57299 -0.0039772 -1.0802 4286118818
-0.57134998 -0.0039802999 -1.081 4286118818
-0.57015997 -0.0039865999 -1.0828 4286118818
-0.56941998 -0.0039961999 -1.0854 4286118818
-0.56777 -0.0039992998 -1.0862 4286118818
-0.59723997 -0.0028826999 -1.0789 4286118818
-0.59467 -0.0028802999 -1.0779999 4286118818
-0.59162998 -0.0028756 -1.0762 4286118818
-0.59187001 -0.0028873 -1.0806 4286118818
-0.59022999 -0.0028895999 -1.0815001 4286118818
-0.58719999 -0.0028848001 -1.0797 4286118818
-0.57927001 -0.0028868001 -1.0804 4286118818
-0.57179999 -0.0028909 -1.0819 4286118818
-0.56971002 -0.0028907999 -1.0819 4286118818
-0.56256002 -0.0028854001 -1.0799 4286118818
-0.56092 -0.0028875 -1.0807 4286118818
-0.59771001 -0.0018059 -1.0798 4286118818
-0.59608001 -0.0018073 -1.0806 4286118818
-0.59350002 -0.0018058 -1.0797 4286118818
-0.59140003 -0.0018058 -1.0797 4286118818
-0.58976001 -0.0018072 -1.0806 4286118818
-0.58719999 -0.0018057 -1.0797 4286118818
-0.58556002 -0.0018071 -1.0805 4286118818
-0.583 -0.0018056 -1.0796 4286118818
-0.58135998 -0.001807 -1.0804 4286118818
-0.56971002 -0.0018094 -1.0819 4286118818
-0.56300998 -0.0018075 -1.0808001 4286118818
-0.56181002 -0.0018104 -1.0825 4286118818
-0.55928999 -0.0018087 -1.0815001 4286118818
-0.59583002 -0.00083858002 -1.0762 4286118818
-0.59608001 -0.00084201002 -1.0806 4286118818
-0.59350002 -0.00084131001 -1.0797 4286118818
-0.58952999 -0.00083854003 -1.0762 4286118818
-0.58882999 -0.00084058999 -1.0788 4286118818
-0.58719999 -0.00084125 -1.0797 4286118818
-0.58601999 -0.00084261002 -1.0814 4286118818
-0.56806999 -0.00084363 -1.0827 4286118818
-0.56598002 -0.00084356999 -1.0826 4286118818
-0.56389999 -0.00084350997 -1.0826 4286118818
-0.56181002 -0.00084344001 -1.0825 4286118818
-0.55928999 -0.00084267999 -1.0815001 4286118818
-0.55852997 -0.00084469997 -1.0841 4286118818
-0.59583002 0.00032990001 -1.0762 4286118818
-0.59561002 0.00033097999 -1.0797 4286118818
-0.59257001 0.00033042999 -1.0779999 4286118818
-0.58907002 0.00032960999 -1.0753 4286118818
-0.58744001 0.00032987 -1.0761 4286118818
-0.56463999 0.00033104001 -1.0799 4286118818
-0.56389999 0.00033184001 -1.0826 4286118818
-0.56181002 0.00033181001 -1.0825 4286118818
-0.55883998 0.00033123 -1.0806 4286118818
-0.59513998 0.0014036 -1.0789 4286118818
-0.59350002 0.0014048 -1.0797 4286118818
-0.59187001 0.0014059 -1.0806 4286118818
-0.58882999 0.0014036 -1.0788 4286118818
-0.58392 0.0014069 -1.0814 4286118818
-0.56375003 0.0014027 -1.0782 4286118818
-0.56300998 0.0014061 -1.0808001 4286118818
-0.55928999 0.001407 -1.0815001 4286118818
-0.55721003 0.0014069 -1.0814 4286118818
-0.55557001 0.001408 -1.0822001 4286118818
-0.59583002 0.0023683 -1.0762 4286118818
-0.59467 0.0023721999 -1.0779999 4286118818
-0.59302998 0.0023741 -1.0788 4286118818
-0.59140003 0.0023759999 -1.0797 4286118818
-0.58882999 0.0023739999 -1.0788 4286118818
-0.58345997 0.0023777001 -1.0805 4286118818
-0.56300998 0.0023783001 -1.0808001 4286118818
-0.56092 0.0023781001 -1.0807 4286118818
-0.55928999 0.0023799001 -1.0815001 4286118818
-0.55545002 0.0023717999 -1.0778 4286118818
-0.59513998 0.0035943 -1.0789 4286118818
-0.59210002 0.0035884001 -1.0771 4286118818
-0.58952999 0.0035854001 -1.0762 4286118818
-0.56092 0.0036003999 -1.0807 4286118818
-0.55381 0.0035933999 -1.0786 4286118818
-0.55228001 0.0036106999 -1.0838 4286118818
-0.55839998 0.004733 -1.0797 4286118818
-0.54934001 0.0047426 -1.0819 4286118818
-0.56004 0.0056702001 -1.0789 4286118818
-0.55839998 0.0056743999 -1.0797 4286118818
-0.54725999 0.0056853001 -1.0818 4286118818
-0.54597002 0.0067715999 -1.079 4286118818
