# .PCD v0.7 - Point Cloud Data file format
VERSION 0.7
FIELDS x y z rgb
SIZE 4 4 4 4
TYPE F F F U
COUNT 1 1 1 1
WIDTH 54
HEIGHT 1
VIEWPOINT 0 0 0 1 0 0 0
POINTS 54
DATA ascii
0.1846 -0.0030213001 -1.1307 4291041564
0.18632001 -0.0030199999 -1.1303 4291041564
0.1846 -0.0018911 -1.1307 4291041564
0.18006 -0.00087882002 -1.1279 4291041564
0.18178 -0.00087845 -1.1274 4291041564
0.18776999 -0.00087953999 -1.1288 4291041564
0.18034001 0.00034602001 -1.1288 4291041564
0.18233 0.00034617001 -1.1293 4291041564
0.18487 0.00034689999 -1.1317 4291041564
0.18605 0.00034616 -1.1293 4291041564
0.18314999 0.001473 -1.1322 4291041564
0.1846 0.0014711 -1.1307 4291041564
0.18522 0.0014655 -1.1264 4291041564
0.17952 0.0024776999 -1.1259 4291041564
0.18314999 0.0024915 -1.1322 4291041564
0.1846 0.0024883 -1.1307 4291041564
0.18605 0.0024850999 -1.1293 4291041564
0.18866 0.0024766 -1.1253999 4291041564
0.18034001 0.0037608 -1.1288 4291041564
0.18151 0.0037527999 -1.1264 4291041564
0.18323 0.0037511999 -1.1259 4291041564
0.18577 0.0037591001 -1.1283 4291041564
0.18722001 0.0037543001 -1.1269 4291041564
0.18034001 0.0049485001 -1.1288 4291041564
0.1807 0.0049251998 -1.1235 4291041564
0.18268 0.0049272999 -1.124 4291041564
0.17581999 0.0059174998 -1.1259 4291041564
0.17781 0.0059201 -1.1264 4291041564
0.17979001 0.0059226002 -1.1269 4291041564
0.18178 0.0059250998 -1.1274 4291041564
0.18404999 0.0059325998 -1.1288 4291041564
0.18605 0.0059350999 -1.1293 4291041564
0.18776999 0.0059325001 -1.1288 4291041564
0.17529 0.0070536998 -1.124 4291041564
0.17897999 0.0070536998 -1.124 4291041564
0.18124001 0.0070628002 -1.1253999 4291041564
0.18350001 0.0070718001 -1.1269 4291041564
0.18605 0.0070867999 -1.1293 4291041564
0.18749 0.0070777 -1.1278 4291041564
0.17555 0.0081519 -1.125 4291041564
0.17727 0.0081484998 -1.1245 4291041564
0.17979001 0.0081658997 -1.1269 4291041564
0.18097 0.0081484998 -1.1245 4291041564
0.18749 0.0081725996 -1.1278 4291041564
0.17501999 0.0091487002 -1.123 4291041564
0.17806999 0.0091840001 -1.1274 4291041564
0.18034001 0.0091957999 -1.1288 4291041564
0.18178 0.0091840001 -1.1274 4291041564
0.18350001 0.0091800001 -1.1269 4291041564
0.17331 0.010451 -1.1235 4291041564
0.17555 0.010465 -1.1249 4291041564
0.177 0.010451 -1.1235 4291041564
0.177 0.011679 -1.1235 4291041564
0.17754 0.012711 -1.1253999 4291041564
