# .PCD v0.7 - Point Cloud Data file format
VERSION 0.7
FIELDS x y z rgb
SIZE 4 4 4 4
TYPE F F F U
COUNT 1 1 1 1
WIDTH 737
HEIGHT 1
VIEWPOINT 0 0 0 1 0 0 0
POINTS 737
DATA ascii
-0.68006003 -0.16441 -1.161 4280219984
-0.67660999 -0.16237 -1.1551 4280219984
-0.67923999 -0.1636 -1.1639 4280219984
-0.67988998 -0.16435 -1.1691999 4280219984
-0.67939001 -0.1613 -1.156 4280219984
-0.68105 -0.16229001 -1.163 4280219984
-0.68023002 -0.16267 -1.1658 4280219984
-0.67988998 -0.16316999 -1.1694 4280219984
-0.68137002 -0.16063 -1.1596 4280219984
-0.68154001 -0.16124 -1.164 4280219984
-0.68268001 -0.1621 -1.1702 4280219984
-0.6789 -0.15884 -1.1555001 4280219984
-0.67808998 -0.15921 -1.1582 4280219984
-0.68023002 -0.1603 -1.1661 4280219984
-0.67839998 -0.1575 -1.1548001 4280219984
-0.67908001 -0.15823001 -1.1601 4280219984
-0.67973 -0.15896 -1.1654 4280219984
-0.67988998 -0.15955999 -1.1698999 4280219984
-0.67939001 -0.1566 -1.1566 4280219984
-0.68203002 -0.15779001 -1.1654 4280219984
-0.68071997 -0.15804 -1.1673 4280219984
-0.68087 -0.15865 -1.1717 4280219984
-0.68001997 -0.15902001 -1.1745 4280219984
-0.67939001 -0.15549999 -1.1568 4280219984
-0.67957002 -0.1561 -1.1612 4280219984
-0.67874998 -0.15647 -1.164 4280219984
-0.67842001 -0.15695 -1.1676 4280219984
-0.67905003 -0.15767001 -1.1729 4280219984
-0.67673999 -0.15769 -1.173 4280219984
-0.67988002 -0.15446 -1.1578 4280219984
-0.67857999 -0.15470999 -1.1597 4280219984
-0.67973 -0.15553001 -1.1659 4280219984
-0.67940003 -0.15601 -1.1695 4280219984
-0.67905003 -0.15649 -1.1731 4280219984
-0.67673999 -0.15651 -1.1732 4280219984
-0.68067998 -0.15289 -1.1552 4280219984
-0.68186003 -0.15370999 -1.1614 4280219984
-0.68054998 -0.15396 -1.1633 4280219984
-0.67923999 -0.15421 -1.1652 4280219984
-0.68233001 -0.15548 -1.1748 4280219984
-0.68149 -0.15584999 -1.1775 4280219984
-0.67869002 -0.15575001 -1.1768 4280219984
-0.67820001 -0.15116 -1.1511 4280219984
-0.67790997 -0.15163 -1.1547 4280219984
-0.67857999 -0.15233 -1.16 4280219984
-0.67923999 -0.15302999 -1.1653 4280219984
-0.68087 -0.15395001 -1.1724 4280219984
-0.68149 -0.15465 -1.1777 4280219984
-0.67869002 -0.15456 -1.177 4280219984
-0.67637998 -0.15458 -1.1770999 4280219984
-0.6789 -0.1507 -1.1565 4280219984
-0.67857999 -0.15117 -1.1601 4280219984
-0.67923999 -0.15186 -1.1655 4280219984
-0.68037999 -0.15267 -1.1717 4280219984
-0.67905003 -0.15290999 -1.1734999 4280219984
-0.67820001 -0.15327001 -1.1763 4280219984
-0.67637998 -0.1534 -1.1773 4280219984
-0.67820001 -0.14885999 -1.1514 4280219984
-0.67988002 -0.14977001 -1.1584001 4280219984
-0.68105 -0.15057001 -1.1646 4280219984
-0.68219 -0.15137 -1.1708 4280219984
-0.68087 -0.15161 -1.1727 4280219984
-0.68050998 -0.15208 -1.1763 4280219984
-0.67918003 -0.15232 -1.1782 4280219984
-0.67720997 -0.14748 -1.1497999 4280219984
-0.67790997 -0.14816999 -1.1551 4280219984
-0.67760003 -0.14862999 -1.1587 4280219984
-0.67923999 -0.14952999 -1.1658 4280219984
-0.67940003 -0.15011001 -1.1702 4280219984
-0.67953998 -0.15068001 -1.1747 4280219984
-0.67820001 -0.15092 -1.1766 4280219984
-0.67771 -0.14643 -1.1508 4280219984
-0.67939001 -0.14733 -1.1579 4280219984
-0.67957002 -0.1479 -1.1623 4280219984
-0.67973 -0.14847 -1.1668 4280219984
-0.67891002 -0.14881 -1.1695 4280219984
-0.67807001 -0.14916 -1.1723 4280219984
-0.67772001 -0.14962 -1.1759 4280219984
-0.67589998 -0.14974999 -1.1769 4280219984
-0.68048 -0.14535999 -1.1517 4280219984
-0.68118 -0.14602999 -1.1569999 4280219984
-0.68137002 -0.14658999 -1.1614 4280219984
-0.68251997 -0.14737999 -1.1676 4280219984
-0.68120998 -0.14760999 -1.1695 4280219984
-0.68037999 -0.14796001 -1.1723 4280219984
-0.67772001 -0.14843 -1.176 4280219984
-0.67997998 -0.1441 -1.151 4280219984
-0.68019003 -0.14465 -1.1554 4280219984
-0.67988002 -0.1451 -1.159 4280219984
-0.68203002 -0.1461 -1.1669 4280219984
-0.68071997 -0.14633 -1.1688 4280219984
-0.67891002 -0.14646 -1.1698 4280219984
-0.6771 -0.14658 -1.1708 4280219984
-0.67673999 -0.14703 -1.1744 4280219984
-0.68076003 -0.14261 -1.1483999 4280219984
-0.67948997 -0.14284 -1.1502 4280219984
-0.67771 -0.14296 -1.1512001 4280219984
-0.6789 -0.14373 -1.1574 4280219984
-0.68054998 -0.14461 -1.1645 4280219984
-0.67874998 -0.14473 -1.1655 4280219984
-0.67793 -0.14507 -1.1682 4280219984
-0.67576998 -0.14564 -1.1727999 4280219984
-0.68125999 -0.14159 -1.1494 4280219984
-0.68197 -0.14225 -1.1547 4280219984
-0.68118 -0.14259 -1.1574 4280219984
-0.68186003 -0.14324 -1.1627001 4280219984
-0.68203002 -0.14379001 -1.1672 4280219984
-0.68120998 -0.14413001 -1.17 4280219984
-0.67891002 -0.14415 -1.1701 4280219984
-0.67905003 -0.14470001 -1.1746 4280219984
-0.67975998 -0.14018001 -1.1469001 4280219984
-0.67848998 -0.14040001 -1.1488 4280219984
-0.67919999 -0.14105 -1.1540999 4280219984
-0.67939001 -0.1416 -1.1586 4280219984
-0.68006003 -0.14225 -1.1639 4280219984
-0.68023002 -0.1428 -1.1684 4280219984
-0.67842001 -0.14292 -1.1694 4280219984
-0.67611998 -0.14294 -1.1695 4280219984
-0.67723 -0.14369 -1.1756999 4280219984
-0.67750001 -0.13903999 -1.1472 4280219984
-0.67919999 -0.13989 -1.1542 4280219984
-0.6789 -0.14033 -1.1578 4280219984
-0.68023002 -0.14162 -1.1684999 4280219984
-0.67940003 -0.14195 -1.1712 4280219984
-0.67856002 -0.14228 -1.174 4280219984
-0.67723 -0.14251 -1.1759 4280219984
-0.68153 -0.13772 -1.1461999 4280219984
-0.68076003 -0.13805 -1.1489 4280219984
-0.68247002 -0.1389 -1.156 4280219984
-0.68216997 -0.13933 -1.1596 4280219984
-0.68234998 -0.13987 -1.164 4280219984
-0.68154001 -0.1402 -1.1668 4280219984
-0.67973 -0.14032 -1.1677999 4280219984
-0.67793 -0.14044 -1.1688 4280219984
-0.67856002 -0.14108001 -1.1741 4280219984
-0.67826998 -0.13641 -1.1447999 4280219984
-0.67899001 -0.13704 -1.1501 4280219984
-0.68019003 -0.13778 -1.1562999 4280219984
-0.68037999 -0.13831 -1.1607 4280219984
-0.68006003 -0.13874 -1.1643 4280219984
-0.67826003 -0.13886 -1.1653 4280219984
-0.67548001 -0.13877 -1.1646 4280219984
-0.67368001 -0.13889 -1.1655999 4280219984
-0.67777002 -0.13519999 -1.1440001 4280219984
-0.67948997 -0.13604 -1.1511 4280219984
-0.67869997 -0.13636 -1.1538 4280219984
-0.67741001 -0.13658001 -1.1557 4280219984
-0.67908001 -0.13741 -1.1627001 4280219984
-0.67874998 -0.13784 -1.1663001 4280219984
-0.67694998 -0.13796 -1.1673 4280219984
-0.6771 -0.13849001 -1.1718 4280219984
-0.67953002 -0.13394 -1.1432 4280219984
-0.67826998 -0.13416 -1.145 4280219984
-0.68048 -0.13508999 -1.1529 4280219984
-0.68067998 -0.13561 -1.1574 4280219984
-0.68037999 -0.13603 -1.161 4280219984
-0.68154001 -0.13676 -1.1672 4280219984
-0.68071997 -0.13708 -1.1698999 4280219984
-0.67988998 -0.1374 -1.1727 4280219984
-0.67903 -0.13267 -1.1424 4280219984
-0.67777002 -0.13289 -1.1443 4280219984
-0.67799002 -0.13339999 -1.1487 4280219984
-0.68019003 -0.13432001 -1.1567 4280219984
-0.67939001 -0.13463999 -1.1594 4280219984
-0.67957002 -0.13516 -1.1639 4280219984
-0.67874998 -0.13548 -1.1666 4280219984
-0.67891002 -0.13600001 -1.1711 4280219984
-0.67852998 -0.13141 -1.1417 4280219984
-0.67877001 -0.13191999 -1.1461999 4280219984
-0.67848998 -0.13234 -1.1497 4280219984
-0.67919999 -0.13294999 -1.1551 4280219984
-0.67839998 -0.13326 -1.1578 4280219984
-0.67808998 -0.13368 -1.1614 4280219984
-0.67826003 -0.13418999 -1.1659 4280219984
-0.67694998 -0.13440999 -1.1677001 4280219984
-0.67929 -0.12994 -1.1391 4280219984
-0.68053001 -0.13065 -1.1453 4280219984
-0.68125999 -0.13124999 -1.1506 4280219984
-0.68098003 -0.13166 -1.1542 4280219984
-0.68265998 -0.13247 -1.1612 4280219984
-0.68186003 -0.13278 -1.164 4280219984
-0.68006003 -0.1329 -1.165 4280219984
-0.67923999 -0.13321 -1.1677001 4280219984
-0.67743999 -0.13332 -1.1687 4280219984
-0.67703003 -0.12879001 -1.1394 4280219984
-0.68026 -0.12988 -1.149 4280219984
-0.67948997 -0.13019 -1.1517 4280219984
-0.67919999 -0.13060001 -1.1553 4280219984
-0.67939001 -0.1311 -1.1598001 4280219984
-0.67957002 -0.13161001 -1.1643 4280219984
-0.67826003 -0.13181999 -1.1661 4280219984
-0.67694998 -0.13203 -1.168 4280219984
-0.67803001 -0.12782 -1.1411999 4280219984
-0.68026 -0.1287 -1.1490999 4280219984
-0.67997998 -0.12910999 -1.1526999 4280219984
-0.67919999 -0.12941 -1.1555001 4280219984
-0.67939001 -0.12991001 -1.1599 4280219984
-0.67908001 -0.13032 -1.1635 4280219984
-0.67826003 -0.13062 -1.1663001 4280219984
-0.67743999 -0.13093001 -1.169 4280219984
-0.68178999 -0.12701 -1.1438 4280219984
-0.68153 -0.12740999 -1.1474 4280219984
-0.68225998 -0.12800001 -1.1526999 4280219984
-0.68098003 -0.12820999 -1.1546 4280219984
-0.68118 -0.1287 -1.159 4280219984
-0.68285 -0.12948 -1.1661 4280219984
-0.68054998 -0.1295 -1.1663001 4280219984
-0.67979002 -0.12558 -1.1404999 4280219984
-0.68053001 -0.12616999 -1.1458 4280219984
-0.68026 -0.12656 -1.1494 4280219984
-0.67997998 -0.12695999 -1.153 4280219984
-0.67969 -0.12736 -1.1566 4280219984
-0.68037999 -0.12794 -1.1619 4280219984
-0.67808998 -0.12796 -1.1619999 4280219984
-0.67874998 -0.12854999 -1.1674 4280219984
-0.67828 -0.12418 -1.138 4280219984
-0.67852998 -0.12467 -1.1425 4280219984
-0.67927003 -0.12525 -1.1478 4280219984
-0.68048 -0.12592 -1.154 4280219984
-0.67969 -0.12622 -1.1567 4280219984
-0.67988002 -0.12671 -1.1612 4280219984
-0.67760003 -0.12672 -1.1612999 4280219984
-0.67777002 -0.12721001 -1.1658 4280219984
-0.68002999 -0.1229 -1.1371 4280219984
-0.67878002 -0.12311 -1.1390001 4280219984
-0.67903 -0.12359 -1.1434 4280219984
-0.68076003 -0.12435 -1.1505001 4280219984
-0.68295997 -0.1252 -1.1584001 4280219984
-0.68167001 -0.12541001 -1.1603 4280219984
-0.68087 -0.1257 -1.163 4280219984
-0.67908001 -0.12581 -1.164 4280219984
-0.67874998 -0.12620001 -1.1676 4280219984
-0.67828 -0.12186 -1.1382999 4280219984
-0.67752999 -0.12216 -1.141 4280219984
-0.67727 -0.12254 -1.1446 4280219984
-0.67997998 -0.12348 -1.1533 4280219984
-0.68067998 -0.12405 -1.1587 4280219984
-0.67939001 -0.12425 -1.1605999 4280219984
-0.67908001 -0.12464 -1.1641999 4280219984
-0.67874998 -0.12502 -1.1677999 4280219984
-0.67777997 -0.12064 -1.1375 4280219984
-0.67703003 -0.12092 -1.1402 4280219984
-0.67627001 -0.12121 -1.143 4280219984
-0.67899001 -0.12214 -1.1517 4280219984
-0.67969 -0.12271 -1.1571 4280219984
-0.6789 -0.123 -1.1598001 4280219984
-0.67760003 -0.1232 -1.1617 4280219984
-0.67777002 -0.12367 -1.1662 4280219984
-0.67728001 -0.11942 -1.1368001 4280219984
-0.67752999 -0.11988 -1.1411999 4280219984
-0.67975998 -0.12071 -1.1490999 4280219984
-0.68048 -0.12127 -1.1545 4280219984
-0.68019003 -0.12165 -1.1581 4280219984
-0.6789 -0.12185 -1.1599 4280219984
-0.67808998 -0.12214 -1.1627001 4280219984
-0.67802 -0.11801 -1.1342 4280219984
-0.67929 -0.11865 -1.1403 4280219984
-0.68102998 -0.11939 -1.1474 4280219984
-0.67927003 -0.11949 -1.1483999 4280219984
-0.67799002 -0.11969 -1.1503 4280219984
-0.67919999 -0.12033 -1.1565 4280219984
-0.67741001 -0.12043 -1.1575 4280219984
-0.67660999 -0.12072 -1.1602 4280219984
-0.67903 -0.11707 -1.136 4280219984
-0.68128997 -0.11788 -1.1439 4280219984
-0.68053001 -0.11816 -1.1466 4280219984
-0.67975998 -0.11845 -1.1494 4280219984
-0.67899001 -0.11873 -1.1521 4280219984
-0.67869997 -0.1191 -1.1557 4280219984
-0.67839998 -0.11947 -1.1593 4280219984
-0.67908001 -0.12002 -1.1646 4280219984
-0.67975998 -0.11567 -1.1334 4280219984
-0.68154001 -0.11639 -1.1404001 4280219984
-0.68079001 -0.11667 -1.1432 4280219984
-0.68053001 -0.11703 -1.1467 4280219984
-0.68026 -0.1174 -1.1503 4280219984
-0.68098003 -0.11794 -1.1557 4280219984
-0.68216997 -0.11858 -1.1619 4280219984
-0.67988002 -0.11859 -1.1619999 4280219984
-0.67908001 -0.11887 -1.1648 4280219984
-0.67953002 -0.1149 -1.1371 4280219984
-0.67828 -0.11509 -1.1390001 4280219984
-0.68002999 -0.1158 -1.146 4280219984
-0.68176001 -0.11651 -1.1531 4280219984
-0.68197 -0.11696 -1.1575 4280219984
-0.68216997 -0.11741 -1.1619999 4280219984
-0.67939001 -0.11734 -1.1612999 4280219984
-0.67852002 -0.11357 -1.1355 4280219984
-0.67929 -0.1141 -1.1408 4280219984
-0.67803001 -0.11429 -1.1427 4280219984
-0.68176001 -0.11534 -1.1532 4280219984
-0.68048 -0.11553 -1.155 4280219984
-0.67869997 -0.11563 -1.1561 4280219984
-0.67790997 -0.1159 -1.1588 4280219984
-0.67975998 -0.11226 -1.1337 4280219984
-0.68002999 -0.11271 -1.1382 4280219984
-0.67929 -0.11298 -1.1409 4280219984
-0.67953002 -0.11342 -1.1454 4280219984
-0.68225998 -0.11429 -1.1540999 4280219984
-0.68197 -0.11464 -1.1576999 4280219984
-0.67969 -0.11466 -1.1579 4280219984
-0.67988002 -0.1151 -1.1624 4280219984
-0.67825001 -0.11091 -1.1313 4280219984
-0.67852002 -0.11134 -1.1357 4280219984
-0.67979002 -0.11195 -1.1418999 4280219984
-0.68053001 -0.11247 -1.1472 4280219984
-0.68125999 -0.11299 -1.1525 4280219984
-0.68098003 -0.11335 -1.1561 4280219984
-0.67869997 -0.11336 -1.1562999 4280219984
-0.67839998 -0.11371 -1.1599 4280219984
-0.67874998 -0.10986 -1.1322 4280219984
-0.67852002 -0.11021 -1.1358 4280219984
-0.67878002 -0.11064 -1.1403 4280219984
-0.67903 -0.11108 -1.1447001 4280219984
-0.67877001 -0.11143 -1.1483001 4280219984
-0.68048 -0.11211 -1.1554 4280219984
-0.68019003 -0.11246 -1.159 4280219984
-0.6789 -0.11264 -1.1609 4280219984
-0.68098998 -0.1087 -1.1322 4280219984
-0.68076998 -0.10905 -1.1358 4280219984
-0.68002999 -0.10931 -1.1385 4280219984
-0.68079001 -0.10982 -1.1438 4280219984
-0.68053001 -0.11017 -1.1474 4280219984
-0.68026 -0.11051 -1.151 4280219984
-0.67899001 -0.11069 -1.1529 4280219984
-0.67869997 -0.11104 -1.1565 4280219984
-0.67948002 -0.10727 -1.1296999 4280219984
-0.68026 -0.10777 -1.135 4280219984
-0.68053001 -0.10819 -1.1395 4280219984
-0.68028998 -0.10853 -1.1431 4280219984
-0.67903 -0.10871 -1.145 4280219984
-0.68026 -0.1093 -1.1511 4280219984
-0.67899001 -0.10948 -1.153 4280219984
-0.67720997 -0.10957 -1.154 4280219984
-0.6789 -0.11024 -1.1611 4280219984
-0.6807 -0.10587 -1.128 4280219984
-0.67896998 -0.10596 -1.1289999 4280219984
-0.67874998 -0.1063 -1.1325999 4280219984
-0.67802 -0.10656 -1.1353 4280219984
-0.68079001 -0.10738 -1.1441 4280219984
-0.68002999 -0.10764 -1.1468 4280219984
-0.67975998 -0.10798 -1.1504 4280219984
-0.67899001 -0.10823 -1.1531 4280219984
-0.67820001 -0.10849 -1.1559 4280219984
-0.67790997 -0.10883 -1.1595 4280219984
-0.6807 -0.10476 -1.1281 4280219984
-0.68049002 -0.1051 -1.1317 4280219984
-0.67975998 -0.10535 -1.1344 4280219984
-0.68355 -0.10632 -1.1449 4280219984
-0.68229002 -0.1065 -1.1467 4280219984
-0.68303001 -0.10699 -1.1521 4280219984
-0.68176001 -0.10717 -1.154 4280219984
-0.67997998 -0.10726 -1.155 4280219984
-0.67869997 -0.10743 -1.1568 4280219984
-0.67846 -0.10372 -1.1283 4280219984
-0.67975998 -0.10428 -1.1345 4280219984
-0.67953002 -0.10461 -1.1381 4280219984
-0.68128997 -0.10526 -1.1451 4280219984
-0.68002999 -0.10543 -1.147 4280219984
-0.68076003 -0.10592 -1.1523 4280219984
-0.67948997 -0.1061 -1.1542 4280219984
-0.67919999 -0.10643 -1.1578 4280219984
-0.67866999 -0.10225 -1.1248 4280219984
-0.67795998 -0.10249 -1.1276 4280219984
-0.67926002 -0.10305 -1.1337 4280219984
-0.68053001 -0.10361 -1.1399 4280219984
-0.68079001 -0.10402 -1.1444 4280219984
-0.68002999 -0.10427 -1.1471 4280219984
-0.67927003 -0.10452 -1.1497999 4280219984
-0.67948997 -0.10492 -1.1543 4280219984
-0.67969 -0.10533 -1.1588 4280219984
-0.68089998 -0.10103 -1.1248 4280219984
-0.67967999 -0.1012 -1.1267 4280219984
-0.67997998 -0.1016 -1.1311001 4280219984
-0.68228 -0.10231 -1.1390001 4280219984
-0.68255001 -0.10271 -1.1435 4280219984
-0.68178999 -0.10296 -1.1461999 4280219984
-0.68203002 -0.10336 -1.1507 4280219984
-0.68026 -0.10345 -1.1517 4280219984
-0.67948997 -0.10369 -1.1544 4280219984
-0.67948002 -0.10037 -1.1303999 4280219984
-0.68026 -0.10084 -1.1357 4280219984
-0.68103999 -0.10131 -1.141 4280219984
-0.68128997 -0.10171 -1.1454 4280219984
-0.67953002 -0.1018 -1.1465 4280219984
-0.67826998 -0.10197 -1.1483001 4280219984
-0.67997998 -0.10259 -1.1554 4280219984
-0.67969 -0.10291 -1.159 4280219984
-0.67918003 -0.098849997 -1.126 4280219984
-0.67997998 -0.099316001 -1.1313 4280219984
-0.67825001 -0.099404998 -1.1323 4280219984
-0.67701 -0.099569 -1.1342 4280219984
-0.67828 -0.10011 -1.1404001 4280219984
-0.67803001 -0.10043 -1.1440001 4280219984
-0.67975998 -0.10105 -1.151 4280219984
-0.67997998 -0.10144 -1.1555001 4280219984
-0.67820001 -0.10153 -1.1565 4280219984
-0.68141001 -0.097739004 -1.1259 4280219984
-0.68120998 -0.098049998 -1.1295 4280219984
-0.68251002 -0.098586001 -1.1357 4280219984
-0.68177998 -0.098824002 -1.1384 4280219984
-0.68304998 -0.099359997 -1.1446 4280219984
-0.68229002 -0.099597998 -1.1474 4280219984
-0.68053001 -0.099685997 -1.1483999 4280219984
-0.67927003 -0.099849001 -1.1503 4280219984
-0.67948997 -0.10024 -1.1547 4280219984
-0.67936999 -0.096359 -1.1226 4280219984
-0.67866999 -0.096593 -1.1253 4280219984
-0.68049002 -0.097195998 -1.1324 4280219984
-0.68026 -0.097503997 -1.136 4280219984
-0.68103999 -0.097961001 -1.1413 4280219984
-0.68079001 -0.098269999 -1.1449 4280219984
-0.68102998 -0.098653004 -1.1493 4280219984
-0.67927003 -0.098739997 -1.1504 4280219984
-0.67948997 -0.099123999 -1.1548001 4280219984
-0.67733997 -0.094993003 -1.1193 4280219984
-0.67816001 -0.095443003 -1.1246001 4280219984
-0.67896998 -0.095893003 -1.1299 4280219984
-0.67874998 -0.096198 -1.1335 4280219984
-0.67852002 -0.096502997 -1.1371 4280219984
-0.67929 -0.096955001 -1.1424 4280219984
-0.67953002 -0.097333997 -1.1468 4280219984
-0.67877001 -0.097566001 -1.1496 4280219984
-0.67948997 -0.098018996 -1.1549 4280219984
-0.68058002 -0.094058998 -1.1209 4280219984
-0.67936999 -0.094215997 -1.1228 4280219984
-0.68120998 -0.094805002 -1.1298 4280219984
-0.68200999 -0.095251001 -1.1351 4280219984
-0.68127 -0.095480002 -1.1379 4280219984
-0.68154001 -0.095853999 -1.1423 4280219984
-0.68178999 -0.096229002 -1.1468 4280219984
-0.68053001 -0.096386999 -1.1487 4280219984
-0.67886001 -0.093027003 -1.122 4280219984
-0.67866999 -0.093323998 -1.1256 4280219984
-0.67896998 -0.093693003 -1.1301 4280219984
-0.67975998 -0.094134003 -1.1354001 4280219984
-0.68002999 -0.094503 -1.1398 4280219984
-0.68079001 -0.094944 -1.1452 4280219984
-0.67953002 -0.095100001 -1.147 4280219984
-0.67899001 -0.095697999 -1.1542 4280219984
-0.67905003 -0.091568001 -1.1185 4280219984
-0.67886001 -0.091861002 -1.1221 4280219984
-0.67866999 -0.092155002 -1.1257 4280219984
-0.67896998 -0.092519 -1.1302 4280219984
-0.67825001 -0.092743002 -1.1329 4280219984
-0.68002999 -0.093318999 -1.1399 4280219984
-0.68128997 -0.093824998 -1.1461 4280219984
-0.67852998 -0.093767002 -1.1454 4280219984
-0.67777002 -0.093990996 -1.1481 4280219984
-0.68006998 -0.090544 -1.1204 4280219984
-0.67988002 -0.090833999 -1.1239001 4280219984
-0.67967999 -0.091123998 -1.1275001 4280219984
-0.68049002 -0.091553003 -1.1328 4280219984
-0.67926002 -0.091705002 -1.1346999 4280219984
-0.68002999 -0.092134997 -1.14 4280219984
-0.68028998 -0.092495002 -1.1445 4280219984
-0.67852998 -0.092577003 -1.1454999 4280219984
-0.67975998 -0.093078002 -1.1517 4280219984
-0.67701 -0.088970996 -1.1153001 4280219984
-0.67886001 -0.089529999 -1.1223 4280219984
-0.67866999 -0.089815997 -1.1259 4280219984
-0.67948002 -0.090240002 -1.1312 4280219984
-0.67926002 -0.090526998 -1.1348 4280219984
-0.67903 -0.090813003 -1.1384 4280219984
-0.67929 -0.091169 -1.1429 4280219984
-0.67852998 -0.091388002 -1.1456 4280219984
-0.67988002 -0.088547997 -1.1241 4280219984
-0.67918003 -0.088762999 -1.1267999 4280219984
-0.67997998 -0.089181997 -1.1322 4280219984
-0.67926002 -0.089396998 -1.1349 4280219984
-0.68103999 -0.089951999 -1.1418999 4280219984
-0.67979002 -0.090099998 -1.1438 4280219984
-0.67852998 -0.090248004 -1.1457 4280219984
-0.67676997 -0.090327002 -1.1467 4280219984
-0.67956001 -0.087104999 -1.1198 4280219984
-0.67988002 -0.087449998 -1.1242 4280219984
-0.67918003 -0.087663002 -1.1269 4280219984
-0.67896998 -0.087941997 -1.1305 4280219984
-0.68278998 -0.088757001 -1.141 4280219984
-0.68154001 -0.088904001 -1.1429 4280219984
-0.68028998 -0.089050002 -1.1447999 4280219984
-0.67903 -0.089195997 -1.1466 4280219984
-0.67886001 -0.086222999 -1.1226 4280219984
-0.67764997 -0.086365998 -1.1244 4280219984
-0.67694998 -0.086576 -1.1272 4280219984
-0.68026 -0.087315001 -1.1368001 4280219984
-0.67953002 -0.087525003 -1.1395 4280219984
-0.67828 -0.087669 -1.1414 4280219984
-0.67703003 -0.087812997 -1.1433001 4280219984
-0.67627001 -0.088022999 -1.146 4280219984
-0.68024999 -0.084716 -1.1172 4280219984
-0.68058002 -0.085052997 -1.1216 4280219984
-0.67886001 -0.085129999 -1.1227 4280219984
-0.67715001 -0.085207 -1.1237 4280219984
-0.67745 -0.085543998 -1.1281 4280219984
-0.67874998 -0.086011998 -1.1343 4280219984
-0.67802 -0.086218998 -1.137 4280219984
-0.67728001 -0.086427003 -1.1398 4280219984
-0.67703003 -0.0867 -1.1434 4280219984
-0.68177998 -0.083795004 -1.1199 4280219984
-0.68058002 -0.083935 -1.1217 4280219984
-0.67988002 -0.084138997 -1.1245 4280219984
-0.67816001 -0.084215 -1.1255 4280219984
-0.68049002 -0.084804997 -1.1334 4280219984
-0.67975998 -0.08501 -1.1361001 4280219984
-0.67852002 -0.085150003 -1.138 4280219984
-0.67929 -0.085548997 -1.1433001 4280219984
-0.67936999 -0.082937002 -1.1237 4280219984
-0.67967999 -0.083265997 -1.1281 4280219984
-0.67948002 -0.083531 -1.1317 4280219984
-0.67874998 -0.083733 -1.1345 4280219984
-0.67802 -0.083934002 -1.1372 4280219984
-0.67777997 -0.084200002 -1.1408 4280219984
-0.67752999 -0.084466003 -1.1444 4280219984
-0.67936999 -0.081840001 -1.1238 4280219984
-0.67918003 -0.082101002 -1.1274 4280219984
-0.67846 -0.0823 -1.1301 4280219984
-0.67773998 -0.082498997 -1.1328 4280219984
-0.67751998 -0.082760997 -1.1364 4280219984
-0.67878002 -0.083212003 -1.1426001 4280219984
-0.67752999 -0.083347999 -1.1445 4280219984
-0.68211001 -0.080820002 -1.1245 4280219984
-0.68039 -0.080893002 -1.1256 4280219984
-0.67967999 -0.081088997 -1.1283 4280219984
-0.68150002 -0.081595004 -1.1353 4280219984
-0.67975998 -0.081667997 -1.1363 4280219984
-0.67953002 -0.081927001 -1.1399 4280219984
-0.67979002 -0.082248002 -1.1444 4280219984
-0.67936999 -0.079666004 -1.1239001 4280219984
-0.67967999 -0.079981998 -1.1284 4280219984
-0.67997998 -0.080297001 -1.1328 4280219984
-0.67975998 -0.080551997 -1.1364 4280219984
-0.67852002 -0.080684997 -1.1382999 4280219984
-0.67886001 -0.078469999 -1.1231 4280219984
-0.68019003 -0.078901 -1.1293 4280219984
-0.67948002 -0.079092003 -1.132 4280219984
-0.67825001 -0.079223 -1.1339 4280219984
-0.67701 -0.079354003 -1.1358 4280219984
-0.68006998 -0.07722 -1.1213 4280219984
-0.67936999 -0.077408001 -1.1241 4280219984
-0.6807 -0.077832997 -1.1302 4280219984
-0.68049002 -0.078080997 -1.1338 4280219984
-0.67926002 -0.078210004 -1.1357 4280219984
-0.67905003 -0.075994998 -1.1197 4280219984
-0.67835999 -0.076180004 -1.1224 4280219984
-0.68019003 -0.076656997 -1.1295 4280219984
-0.67997998 -0.076901004 -1.1331 4280219984
-0.68177998 -0.077379003 -1.1401 4280219984
-0.67703003 -0.077643998 -1.1440001 4280219984
-0.68024999 -0.074726999 -1.1179 4280219984
-0.67905003 -0.074851997 -1.1198 4280219984
-0.67733997 -0.074919999 -1.1208 4280219984
-0.6807 -0.075562 -1.1303999 4280219984
-0.67896998 -0.075630002 -1.1314 4280219984
-0.67703003 -0.076476 -1.1441 4280219984
-0.68298 -0.073596001 -1.1187 4280219984
-0.68177998 -0.073720001 -1.1206 4280219984
-0.68058002 -0.073843002 -1.1224 4280219984
-0.68141001 -0.074192002 -1.1277 4280219984
-0.6807 -0.074372001 -1.1305 4280219984
-0.67478001 -0.075282 -1.1443 4280219984
-0.68024999 -0.072417997 -1.1181 4280219984
-0.67905003 -0.07254 -1.1199 4280219984
-0.68039 -0.072939001 -1.1260999 4280219984
-0.67918003 -0.073059998 -1.128 4280219984
-0.67769003 -0.071042001 -1.1138 4280219984
-0.67956001 -0.071488999 -1.1209 4280219984
-0.67936999 -0.071718 -1.1245 4280219984
-0.67918003 -0.071947999 -1.128 4280219984
-0.67953998 -0.069637001 -1.1093 4280219984
-0.68041003 -0.069968998 -1.1145999 4280219984
-0.68383002 -0.070570998 -1.1242 4280219984
-0.68261999 -0.070689 -1.1260999 4280219984
-0.68039 -0.070698999 -1.1262 4280219984
-0.67916 -0.068239003 -1.105 4280219984
-0.67953998 -0.068512999 -1.1094 4280219984
-0.67989999 -0.068787001 -1.1138 4280219984
-0.68024999 -0.069062002 -1.1183 4280219984
-0.68159997 -0.069441997 -1.1244 4280219984
-0.68039 -0.069558002 -1.1263 4280219984
-0.67953998 -0.067390002 -1.1095001 4280219984
-0.67989999 -0.067658998 -1.1138999 4280219984
-0.67812997 -0.065899 -1.1034 4280219984
-0.68107998 -0.066419996 -1.1121 4280219984
-0.68194997 -0.066735998 -1.1174001 4280219984
-0.67760998 -0.064779997 -1.1026 4280219984
-0.67953998 -0.065191001 -1.1095999 4280219984
-0.67760998 -0.063744001 -1.1027 4280219984
-0.67799002 -0.064000003 -1.1071 4280219984
-0.67835999 -0.064257003 -1.1115 4280219984
-0.68032998 -0.062706999 -1.1034 4280219984
-0.68123001 -0.063008003 -1.1087 4280219984
-0.68107998 -0.063212 -1.1123 4280219984
-0.67980999 -0.061542999 -1.1026 4280219984
-0.67916 -0.061694998 -1.1052999 4280219984
-0.68057001 -0.062038001 -1.1115 4280219984
-0.67877001 -0.060311001 -1.101 4280219984
-0.67865002 -0.060506999 -1.1046 4280219984
-0.68107998 -0.060936999 -1.1124001 4280219984
-0.67877001 -0.059152 -1.101 4280219984
-0.68019998 -0.059482001 -1.1072 4280219984
-0.68107998 -0.059767 -1.1125 4280219984
-0.67992997 -0.057969 -1.0992 4280219984
-0.67980999 -0.058157999 -1.1028 4280219984
-0.67812997 -0.058210999 -1.1038001 4280219984
-0.68005002 -0.058580998 -1.1108 4280219984
-0.68264002 -0.056972001 -1.1 4280219984
-0.68097001 -0.057023998 -1.101 4280219984
-0.67929 -0.057077002 -1.102 4280219984
-0.67865002 -0.057218 -1.1047 4280219984
-0.67799002 -0.057358999 -1.1075 4280219984
-0.67835999 -0.057588998 -1.1119 4280219984
-0.68212003 -0.055861998 -1.0992 4280219984
-0.68200999 -0.056042999 -1.1027 4280219984
-0.68085003 -0.056139 -1.1046 4280219984
-0.67916 -0.056189999 -1.1056 4280219984
-0.67953998 -0.056416001 -1.1101 4280219984
-0.68032998 -0.054992002 -1.1038001 4280219984
-0.67916 -0.055085 -1.1057 4280219984
-0.68057001 -0.055392001 -1.1118 4280219984
-0.67980999 -0.053817999 -1.103 4280219984
-0.67967999 -0.053993002 -1.1066 4280219984
-0.68005002 -0.054209001 -1.1109999 4280219984
-0.68136001 -0.052779999 -1.1056 4280219984
-0.68175 -0.052992001 -1.1101 4280219984
-0.68057001 -0.053080998 -1.112 4280219984
-0.68188 -0.051739 -1.1065 4280219984
-0.68071002 -0.051826999 -1.1084 4280219984
-0.67953998 -0.051915001 -1.1102999 4280219984
-0.68032998 -0.050595999 -1.104 4280219984
-0.67967999 -0.050721001 -1.1068 4280219984
-0.68057001 -0.050964002 -1.1121 4280219984
-0.68045002 -0.049371999 -1.1005 4280219984
-0.67980999 -0.049493998 -1.1032 4280219984
-0.68330002 -0.049922999 -1.1128 4280219984
-0.67837 -0.048122 -1.0971 4280219984
-0.67980999 -0.048390999 -1.1033 4280219984
-0.68071002 -0.048622999 -1.1086 4280219984
-0.67940998 -0.047047 -1.0989 4280219984
-0.67877001 -0.047162998 -1.1016001 4280219984
-0.67967999 -0.047389999 -1.1069 4280219984
-0.67953998 -0.047543 -1.1105 4280219984
-0.68097001 -0.045952 -1.1015 4280219984
-0.68032998 -0.046066001 -1.1042 4280219984
-0.68175 -0.046321999 -1.1104 4280219984
-0.67837 -0.044643998 -1.0973001 4280219984
-0.67877001 -0.044824999 -1.1016999 4280219984
-0.68123001 -0.045143999 -1.1095999 4280219984
-0.68107998 -0.045290001 -1.1131999 4280219984
-0.68200999 -0.043799002 -1.1033 4280219984
-0.68085003 -0.043873001 -1.1052001 4280219984
-0.68019998 -0.043981999 -1.1079 4280219984
-0.68107998 -0.044192001 -1.1131999 4280219984
-0.68194997 -0.044403002 -1.1185 4280219984
-0.68055999 -0.042495999 -1.0972 4280219984
-0.68045002 -0.042633999 -1.1008 4280219984
-0.68085003 -0.042806 -1.1052001 4280219984
-0.68225998 -0.043044001 -1.1114 4280219984
-0.68159997 -0.04315 -1.1141 4280219984
-0.68247002 -0.043356001 -1.1194 4280219984
-0.67785001 -0.041425001 -1.0966001 4280219984
-0.67980999 -0.041689001 -1.1035 4280219984
-0.68019998 -0.041857 -1.108 4280219984
-0.68005002 -0.041993 -1.1116 4280219984
-0.67835999 -0.042031001 -1.1126 4280219984
-0.67992997 -0.040444002 -1.1 4280219984
-0.68136001 -0.04067 -1.1062 4280219984
-0.68071002 -0.040771 -1.1089 4280219984
-0.67901999 -0.040808 -1.1099 4280219984
-0.67681998 -0.040814001 -1.1101 4280219984
-0.67820001 -0.04104 -1.1162 4280219984
-0.68212003 -0.039266001 -1.0999 4280219984
-0.68252999 -0.039425001 -1.1043 4280219984
-0.68188 -0.039522 -1.1071 4280219984
-0.68071002 -0.039588999 -1.1089 4280219984
-0.68107998 -0.039747 -1.1134 4280219984
-0.68093002 -0.039875999 -1.117 4280219984
-0.67974001 -0.039942998 -1.1188 4280219984
-0.67856997 -0.037806999 -1.0904 4280219984
-0.68004 -0.038019001 -1.0965 4280219984
-0.67992997 -0.038143001 -1.1001 4280219984
-0.67929 -0.038238 -1.1028 4280219984
-0.67916 -0.038362 -1.1064 4280219984
-0.68005002 -0.038546 -1.1117001 4280219984
-0.68041003 -0.038699999 -1.1161 4280219984
-0.67974001 -0.038795002 -1.1188999 4280219984
-0.67804998 -0.036688 -1.0896 4280219984
-0.67900002 -0.036866002 -1.0948 4280219984
-0.67888999 -0.036986001 -1.0984 4280219984
-0.67773998 -0.037048999 -1.1003 4280219984
-0.67812997 -0.037199002 -1.1047 4280219984
-0.67747998 -0.037289999 -1.1075 4280219984
-0.67989999 -0.037555002 -1.1153001 4280219984
-0.68076003 -0.037733998 -1.1206 4280219984
-0.68023002 -0.035585001 -1.0894001 4280219984
-0.68171 -0.035785999 -1.0956 4280219984
-0.68264002 -0.035958 -1.1009001 4280219984
-0.68097001 -0.035990998 -1.1019 4280219984
-0.67929 -0.036024999 -1.1029 4280219984
-0.67916 -0.036141999 -1.1065 4280219984
-0.67851001 -0.036231 -1.1092 4280219984
-0.67989999 -0.036432002 -1.1154 4280219984
-0.68023002 -0.034481999 -1.0895 4280219984
-0.68066001 -0.034621999 -1.0939 4280219984
-0.68004 -0.034708001 -1.0966001 4280219984
-0.67888999 -0.034768 -1.0985 4280219984
-0.67929 -0.034908 -1.1029 4280219984
-0.67812997 -0.034967002 -1.1048 4280219984
-0.67953998 -0.035162002 -1.1109999 4280219984
-0.68023002 -0.033395998 -1.0895 4280219984
-0.67962003 -0.033479001 -1.0922 4280219984
-0.67795998 -0.03351 -1.0932 4280219984
-0.67992997 -0.033725001 -1.1002001 4280219984
-0.67980999 -0.033833999 -1.1038001 4280219984
-0.67916 -0.033918001 -1.1065 4280219984
-0.68107998 -0.034132998 -1.1136 4280219984
-0.68144 -0.034269001 -1.118 4280219984
-0.68023002 -0.03232 -1.0895 4280219984
-0.67962003 -0.032400999 -1.0923001 4280219984
-0.68264002 -0.032659002 -1.101 4280219984
-0.68304998 -0.032791 -1.1054 4280219984
-0.68188 -0.032846 -1.1073 4280219984
-0.68175 -0.032953002 -1.1109 4280219984
-0.68057001 -0.033008002 -1.1127 4280219984
-0.68004 -0.03145 -1.0967 4280219984
-0.67940998 -0.031528 -1.0994 4280219984
-0.67929 -0.031631 -1.103 4280219984
-0.67967999 -0.031757999 -1.1075 4280219984
-0.68005002 -0.031886 -1.1119 4280219984
-0.67940998 -0.030444 -1.0994999 4280219984
-0.67929 -0.030543 -1.1030999 4280219984
-0.67812997 -0.030595001 -1.1049 4280219984
-0.67953998 -0.030765001 -1.1111 4280219984
-0.67837 -0.029296 -1.0978 4280219984
-0.67773998 -0.029369 -1.1005 4280219984
-0.67865002 -0.029510001 -1.1058 4280219984
-0.67799002 -0.029583 -1.1085 4280219984
