# .PCD v0.7 - Point Cloud Data file format
VERSION 0.7
FIELDS x y z rgb
SIZE 4 4 4 4
TYPE F F F U
COUNT 1 1 1 1
WIDTH 53
HEIGHT 1
VIEWPOINT 0 0 0 1 0 0 0
POINTS 53
DATA ascii
0.21262001 -0.68235999 -1.2042 4290335540
0.21479 -0.68208998 -1.2036999 4290335540
0.20997 -0.68115002 -1.2032 4290335540
0.21213999 -0.68089002 -1.2028 4290335540
0.21479 -0.68106002 -1.2043 4290335540
0.2172 -0.68127 -1.2046 4290335540
0.20997 -0.68010002 -1.2038 4290335540
0.2119 -0.67935002 -1.2025 4290335540
0.21455 -0.68004 -1.2036999 4290335540
0.21696 -0.68024999 -1.2041 4290335540
0.22127999 -0.67970997 -1.2031 4290335540
0.20997 -0.67954999 -1.2041 4290335540
0.21238001 -0.67976999 -1.2045 4290335540
0.21479 -0.67997998 -1.2049 4290335540
0.21744999 -0.68066001 -1.2061 4290335540
0.21961001 -0.68039 -1.2056 4290335540
0.22178 -0.68011999 -1.2051001 4290335540
0.21069001 -0.68049002 -1.2069 4290335540
0.21311 -0.6807 -1.2072999 4290335540
0.21503 -0.67996001 -1.206 4290335540
0.21769001 -0.68063998 -1.2072001 4290335540
0.22036 -0.68133003 -1.2084 4290335540
0.22278 -0.68153 -1.2088 4290335540
0.21069001 -0.68000001 -1.2072001 4290335540
0.21311 -0.68020999 -1.2076 4290335540
0.21479 -0.67899001 -1.2054 4290335540
0.21769001 -0.68014997 -1.2075 4290335540
0.22011 -0.68036002 -1.2079 4290335540
0.22228 -0.68008 -1.2074 4290335540
0.21044999 -0.67891997 -1.2067 4290335540
0.21286 -0.67913997 -1.2071 4290335540
0.21528 -0.67935002 -1.2075 4290335540
0.21769001 -0.67954999 -1.2078 4290335540
0.21986 -0.67927998 -1.2074 4290335540
0.22178 -0.67853999 -1.206 4290335540
0.2237 -0.67778999 -1.2047 4290335540
0.21069001 -0.67878997 -1.2079 4290335540
0.21335 -0.67948002 -1.2091 4290335540
0.21818 -0.67988998 -1.2099 4290335540
0.21986 -0.67866999 -1.2077 4290335540
0.22228 -0.67887002 -1.2081 4290335540
0.2242 -0.67812997 -1.2067 4290335540
0.21575999 -0.67907 -1.2098 4290335540
0.21769001 -0.67833 -1.2085 4290335540
0.21961001 -0.67759001 -1.2072001 4290335540
0.22495 -0.67894 -1.2096 4290335540
0.22687 -0.67818999 -1.2083 4290335540
0.21551999 -0.67799002 -1.2093 4290335540
0.2252 -0.67879999 -1.2108001 4290335540
0.22712 -0.67804998 -1.2095 4290335540
0.22928999 -0.67719001 -1.2093 4290335540
0.2247 -0.67668998 -1.2098 4290335540
0.22928999 -0.67660999 -1.2096 4290335540
