# .PCD v0.7 - Point Cloud Data file format
VERSION 0.7
FIELDS x y z rgb
SIZE 4 4 4 4
TYPE F F F U
COUNT 1 1 1 1
WIDTH 197
HEIGHT 1
VIEWPOINT 0 0 0 1 0 0 0
POINTS 197
DATA ascii
0.43937999 0.010436 -1.1217999 4284018718
0.43814999 0.013761 -1.1236 4284018718
0.43766999 0.014838 -1.1227 4284018718
0.43186 0.015908999 -1.1201 4284018718
0.43548 0.015946001 -1.1227 4284018718
0.43766999 0.015945001 -1.1227 4284018718
0.42967999 0.017067 -1.1202 4284018718
0.43234 0.01708 -1.1210001 4284018718
0.43404999 0.017066 -1.1201 4284018718
0.43719 0.017092001 -1.1217999 4284018718
0.42750001 0.018398 -1.1202 4284018718
0.43015999 0.018412 -1.1210001 4284018718
0.43281999 0.018425001 -1.1219 4284018718
0.43548 0.018439 -1.1227 4284018718
0.43719 0.018424001 -1.1217999 4284018718
0.41661999 0.019433999 -1.1203001 4284018718
0.41833001 0.019419 -1.1194 4284018718
0.42703 0.019416999 -1.1193 4284018718
0.43063 0.019462001 -1.1219 4284018718
0.43186 0.019431001 -1.1201 4284018718
0.435 0.019461 -1.1217999 4284018718
0.43671 0.019445 -1.1209 4284018718
0.41227999 0.020554001 -1.1203001 4284018718
0.41306001 0.020505 -1.1176 4284018718
0.41661999 0.020554001 -1.1203001 4284018718
0.41833001 0.020538 -1.1194 4284018718
0.42003 0.020521 -1.1185 4284018718
0.42484999 0.020536 -1.1193 4284018718
0.42703 0.020536 -1.1193 4284018718
0.42921001 0.020535 -1.1192 4284018718
0.43090999 0.020517999 -1.1183 4284018718
0.43452001 0.020566 -1.1209 4284018718
0.43671 0.020564999 -1.1208 4284018718
0.4163 0.021718999 -1.1238 4284018718
0.41801 0.021702001 -1.1229 4284018718
0.41879001 0.02165 -1.1202 4284018718
0.42096999 0.02165 -1.1202 4284018718
0.42313999 0.021648999 -1.1202 4284018718
0.42532 0.021648999 -1.1202 4284018718
0.42750001 0.021648001 -1.1201 4284018718
0.42967999 0.021647001 -1.1201 4284018718
0.43138999 0.02163 -1.1192 4284018718
0.43404999 0.021646 -1.12 4284018718
0.43719 0.021679001 -1.1217 4284018718
0.41661999 0.022731001 -1.1202 4284018718
0.41738999 0.022677001 -1.1174999 4284018718
0.41863 0.022640999 -1.1158 4284018718
0.42127001 0.022658 -1.1166 4284018718
0.42344001 0.022658 -1.1166 4284018718
0.42703 0.022710999 -1.1192 4284018718
0.42967999 0.022728 -1.1201 4284018718
0.43138999 0.022709001 -1.1191 4284018718
0.43261999 0.022673 -1.1173 4284018718
0.4348 0.022671999 -1.1173 4284018718
0.43794 0.022706 -1.119 4284018718
0.41692999 0.023747999 -1.1166 4284018718
0.41863 0.023729 -1.1157 4284018718
0.42174 0.023767 -1.1174999 4284018718
0.42344001 0.023747001 -1.1166 4284018718
0.42561001 0.023747001 -1.1166 4284018718
0.43063 0.023858 -1.1217999 4284018718
0.43234 0.023839001 -1.1209 4284018718
0.43309 0.023782 -1.1181999 4284018718
0.4348 0.023762001 -1.1173 4284018718
0.43746001 0.023778999 -1.1181 4284018718
0.41569 0.02489 -1.1184 4284018718
0.41786 0.024889 -1.1184 4284018718
0.42050001 0.024909001 -1.1193 4284018718
0.42221001 0.024889 -1.1183 4284018718
0.42438 0.024888 -1.1183 4284018718
0.42656001 0.024886999 -1.1183 4284018718
0.42873001 0.024886999 -1.1183 4284018718
0.43186 0.024924999 -1.12 4284018718
0.43357 0.024904 -1.1191 4284018718
0.43528 0.024884 -1.1181 4284018718
0.43746001 0.024882 -1.1181 4284018718
0.41692999 0.025952 -1.1166 4284018718
0.41815999 0.025909999 -1.1148 4284018718
0.42127001 0.025951 -1.1166 4284018718
0.42579001 0.026053 -1.1209 4284018718
0.42750001 0.026031001 -1.12 4284018718
0.42778999 0.025948999 -1.1165 4284018718
0.42949 0.025927 -1.1156 4284018718
0.43261999 0.025967 -1.1173 4284018718
0.43432 0.025946001 -1.1163 4284018718
0.43698001 0.025965 -1.1172 4284018718
0.41553 0.026989 -1.1138999 4284018718
0.41769001 0.026988 -1.1138999 4284018718
0.42127001 0.027052 -1.1165 4284018718
0.42203 0.026988 -1.1138999 4284018718
0.42656001 0.027093999 -1.1181999 4284018718
0.42684001 0.027008001 -1.1147 4284018718
0.42901 0.027007001 -1.1147 4284018718
0.43261999 0.027070001 -1.1172 4284018718
0.4348 0.027068 -1.1172 4284018718
0.43698001 0.027067 -1.1171 4284018718
0.43724 0.026981 -1.1136 4284018718
0.41692999 0.028162001 -1.1165 4284018718
0.42003 0.028206 -1.1183 4284018718
0.42174 0.028183 -1.1174001 4284018718
0.42250001 0.028116001 -1.1147 4284018718
0.42419001 0.028093001 -1.1138 4284018718
0.42826 0.028181 -1.1173 4284018718
0.43090999 0.028201999 -1.1181 4284018718
0.43261999 0.028178999 -1.1172 4284018718
0.43575001 0.028222 -1.1188999 4284018718
0.43650001 0.028154001 -1.1162 4284018718
0.41383001 0.029231999 -1.1148 4284018718
0.41646001 0.029255001 -1.1156 4284018718
0.42730999 0.029252 -1.1155 4284018718
0.43044001 0.029297 -1.1172 4284018718
0.43118 0.029225999 -1.1145999 4284018718
0.43432 0.029270999 -1.1163 4284018718
0.43698001 0.029293001 -1.1171 4284018718
0.41429999 0.030363001 -1.1156 4284018718
0.41692999 0.030386001 -1.1165 4284018718
0.41769001 0.030314 -1.1138 4284018718
0.42324999 0.030263999 -1.112 4284018718
0.42541999 0.030262999 -1.112 4284018718
0.42853001 0.030309999 -1.1137 4284018718
0.43118 0.030332999 -1.1145 4284018718
0.43288001 0.030308001 -1.1136 4284018718
0.43650001 0.030378001 -1.1162 4284018718
0.41692999 0.031488001 -1.1165 4284018718
0.42419001 0.031411 -1.1137 4284018718
0.42589 0.031385001 -1.1128 4284018718
0.42806 0.031383999 -1.1128 4284018718
0.43118 0.031433001 -1.1145 4284018718
0.43336001 0.031431001 -1.1144 4284018718
0.43553999 0.031429999 -1.1144 4284018718
0.41337001 0.032527 -1.1138 4284018718
0.41738999 0.03263 -1.1173 4284018718
0.42561001 0.032600999 -1.1163 4284018718
0.42684001 0.032549001 -1.1145 4284018718
0.42853001 0.032522 -1.1136 4284018718
0.42975 0.032469999 -1.1118 4284018718
0.43288001 0.03252 -1.1135 4284018718
0.43553999 0.032543998 -1.1144 4284018718
0.42419001 0.033652 -1.1137 4284018718
0.42541999 0.033597998 -1.1119 4284018718
0.42758 0.033597 -1.1118 4284018718
0.42928001 0.033569001 -1.1109 4284018718
0.43191999 0.033594001 -1.1117001 4284018718
0.43505999 0.033645999 -1.1135 4284018718
0.41506001 0.034747001 -1.1128 4284018718
0.42278001 0.03469 -1.1109999 4284018718
0.42636001 0.034770999 -1.1136 4284018718
0.42806 0.034743 -1.1127 4284018718
0.43022999 0.034742001 -1.1126 4284018718
0.43191999 0.034713 -1.1117001 4284018718
0.43505999 0.034766 -1.1134 4284018718
0.41244 0.035831999 -1.1119 4284018718
0.41600001 0.035916999 -1.1145 4284018718
0.41845 0.035801999 -1.1109999 4284018718
0.42278001 0.035801001 -1.1109 4284018718
0.42684001 0.035913002 -1.1144 4284018718
0.42901 0.035912 -1.1144 4284018718
0.43070999 0.035882 -1.1135 4284018718
0.43336001 0.035909001 -1.1143 4284018718
0.43505999 0.035879001 -1.1134 4284018718
0.41460001 0.036920998 -1.1119 4284018718
0.41628999 0.036892001 -1.1109999 4284018718
0.41797999 0.036862001 -1.1101 4284018718
0.41966999 0.036832001 -1.1092 4284018718
0.42183 0.036830999 -1.1091 4284018718
0.42493999 0.036889002 -1.1109 4284018718
0.42806 0.036945999 -1.1126 4284018718
0.43070999 0.036974002 -1.1134 4284018718
0.43505999 0.036970999 -1.1134 4284018718
0.41319999 0.037898999 -1.1092 4284018718
0.41488999 0.037868001 -1.1083 4284018718
0.41797999 0.037928 -1.11 4284018718
0.41966999 0.037896998 -1.1091 4284018718
0.42278001 0.037957001 -1.1109 4284018718
0.42447001 0.037926 -1.11 4284018718
0.42710999 0.037955001 -1.1108 4284018718
0.43022999 0.038013 -1.1125 4284018718
0.41319999 0.039007001 -1.1091 4284018718
0.41582 0.039037999 -1.11 4284018718
0.41703999 0.038975 -1.1082 4284018718
0.41966999 0.039005999 -1.1091 4284018718
0.42324999 0.039097998 -1.1117001 4284018718
0.42493999 0.039066002 -1.1108 4284018718
0.42662999 0.039034002 -1.1099 4284018718
0.43070999 0.039156001 -1.1134 4284018718
0.41226 0.040095001 -1.1073 4284018718
0.41442001 0.040095001 -1.1073 4284018718
0.41966999 0.040158 -1.1091 4284018718
0.42183 0.040157001 -1.109 4284018718
0.42399001 0.040155999 -1.109 4284018718
0.42568001 0.040123001 -1.1081001 4284018718
0.41751 0.041288 -1.109 4284018718
0.42107999 0.041386001 -1.1117001 4284018718
0.42278001 0.041352 -1.1108 4284018718
0.42399001 0.041285999 -1.109 4284018718
0.42949 0.041514002 -1.1151 4284018718
0.4192 0.042362001 -1.1081001 4284018718
