# .PCD v0.7 - Point Cloud Data file format
VERSION 0.7
FIELDS x y z rgb
SIZE 4 4 4 4
TYPE F F F U
COUNT 1 1 1 1
WIDTH 58
HEIGHT 1
VIEWPOINT 0 0 0 1 0 0 0
POINTS 58
DATA ascii
-0.65342999 -0.066624999 -1.1155 4291502354
-0.64827001 -0.066320002 -1.1104 4291502354
-0.64706999 -0.066428997 -1.1123 4291502354
-0.64586002 -0.066537999 -1.1141 4291502354
-0.65762001 -0.065742001 -1.119 4291502354
-0.65095001 -0.065289997 -1.1113 4291502354
-0.64876002 -0.065295003 -1.1114 4291502354
-0.64756 -0.065403 -1.1131999 4291502354
-0.64586002 -0.065458998 -1.1141 4291502354
-0.64464998 -0.065566003 -1.1160001 4291502354
-0.65952998 -0.064427003 -1.1145 4291502354
-0.65632999 -0.064333998 -1.1129 4291502354
-0.65464002 -0.064390004 -1.1138 4291502354
-0.65293002 -0.064446002 -1.1148 4291502354
-0.65025002 -0.064401999 -1.114 4291502354
-0.64854002 -0.064456999 -1.115 4291502354
-0.64683998 -0.064512998 -1.1159 4291502354
-0.64612001 -0.064668998 -1.1186 4291502354
-0.65772003 -0.062940001 -1.1075 4291502354
-0.65603 -0.062995002 -1.1085 4291502354
-0.65434003 -0.063051 -1.1095001 4291502354
-0.65265 -0.063106 -1.1104 4291502354
-0.65342999 -0.063406996 -1.1157 4291502354
-0.65002 -0.063516997 -1.1177 4291502354
-0.64832002 -0.063571997 -1.1186 4291502354
-0.64709997 -0.063676 -1.1205 4291502354
-0.65821999 -0.061866999 -1.1084 4291502354
-0.65603 -0.061873 -1.1085 4291502354
-0.65384001 -0.061879002 -1.1087 4291502354
-0.65363997 -0.062077999 -1.1122 4291502354
-0.65393001 -0.062325999 -1.1167001 4291502354
-0.65222001 -0.062380001 -1.1176 4291502354
-0.65002 -0.062385 -1.1177 4291502354
-0.64732999 -0.062341999 -1.1169 4291502354
-0.64758998 -0.062590003 -1.1214 4291502354
-0.65772003 -0.060674999 -1.1076 4291502354
-0.65702999 -0.060823001 -1.1102999 4291502354
-0.65393001 -0.061172999 -1.1167001 4291502354
-0.65222001 -0.061225999 -1.1177 4291502354
-0.65051001 -0.061278999 -1.1187 4291502354
-0.65028 -0.061475001 -1.1222 4291502354
-0.65821999 -0.059556 -1.1086 4291502354
-0.65853 -0.059795 -1.113 4291502354
-0.65491998 -0.060091 -1.1185 4291502354
-0.65320998 -0.060144 -1.1195 4291502354
-0.65199 -0.060242001 -1.1213 4291502354
-0.65802997 -0.058653001 -1.1122 4291502354
-0.65732998 -0.058796 -1.1149 4291502354
-0.65393001 -0.058897998 -1.1168 4291502354
-0.65369999 -0.059087001 -1.1204 4291502354
-0.65248001 -0.059184 -1.1223 4291502354
-0.65802997 -0.057606999 -1.1122 4291502354
-0.65683001 -0.057703 -1.1141 4291502354
-0.65613002 -0.057843 -1.1168 4291502354
-0.65491998 -0.057937998 -1.1186 4291502354
-0.65420002 -0.058079001 -1.1213 4291502354
-0.65732998 -0.056666002 -1.115 4291502354
-0.65662003 -0.056804001 -1.1177 4291502354
