# .PCD v0.7 - Point Cloud Data file format
VERSION 0.7
FIELDS x y z rgb
SIZE 4 4 4 4
TYPE F F F U
COUNT 1 1 1 1
WIDTH 59
HEIGHT 1
VIEWPOINT 0 0 0 1 0 0 0
POINTS 59
DATA ascii
-0.48861 -0.67552 -1.1993001 4286675904
-0.48921001 -0.67403001 -1.2023 4286675904
-0.49228001 -0.67452002 -1.2045 4286675904
-0.48951 -0.67391998 -1.2035 4286675904
-0.48675001 -0.67332 -1.2024 4286675904
-0.48429999 -0.67319 -1.2021 4286675904
-0.49259001 -0.67439997 -1.2057 4286675904
-0.48982 -0.67381001 -1.2046 4286675904
-0.48765999 -0.67413998 -1.2052 4286675904
-0.48548999 -0.67447001 -1.2058001 4286675904
-0.48273 -0.67387003 -1.2047 4286675904
-0.4966 -0.67255002 -1.204 4286675904
-0.49414 -0.67242002 -1.2038 4286675904
-0.49197999 -0.67276001 -1.2043999 4286675904
-0.48951 -0.67263001 -1.2042 4286675904
-0.48765999 -0.67343003 -1.2056 4286675904
-0.48609 -0.67469001 -1.2079 4286675904
-0.48302999 -0.67363 -1.206 4286675904
-0.49414 -0.6717 -1.2042 4286675904
-0.49197999 -0.67203999 -1.2048 4286675904
-0.49011999 -0.67284 -1.2062 4286675904
-0.48796001 -0.67316997 -1.2068 4286675904
-0.48638999 -0.67443001 -1.2091 4286675904
-0.48333001 -0.67337 -1.2072001 4286675904
-0.49691001 -0.67168999 -1.2056 4286675904
-0.49474999 -0.67202997 -1.2062 4286675904
-0.49289 -0.67282999 -1.2076 4286675904
-0.49042001 -0.67269999 -1.2074 4286675904
-0.48826 -0.67303997 -1.2079999 4286675904
-0.49722001 -0.67155999 -1.2068 4286675904
-0.49474999 -0.67142999 -1.2065001 4286675904
-0.49259001 -0.67176998 -1.2071 4286675904
-0.49042001 -0.67211002 -1.2077 4286675904
-0.49505001 -0.67117 -1.2078 4286675904
-0.49318999 -0.67197001 -1.2092 4286675904
-0.49133 -0.67277002 -1.2106 4286675904
-0.49597001 -0.67180997 -1.2107 4286675904
-0.49193001 -0.67295003 -1.2127 4286675904
-0.49535999 -0.67014998 -1.2094001 4286675904
-0.49318999 -0.67049003 -1.21 4286675904
-0.49133 -0.67128003 -1.2115 4286675904
-0.49535999 -0.66940999 -1.2098 4286675904
-0.49318999 -0.66974998 -1.2104 4286675904
-0.49597001 -0.66962999 -1.2119 4286675904
-0.49349999 -0.66949999 -1.2117 4286675904
-0.50185001 -0.67053998 -1.2151999 4286675904
-0.49968001 -0.67088002 -1.2158 4286675904
-0.49531999 -0.67155999 -1.2171 4286675904
-0.49845001 -0.66825002 -1.2129 4286675904
-0.49410999 -0.66892999 -1.2142 4286675904
-0.50154001 -0.66850001 -1.2153 4286675904
-0.49845001 -0.66746998 -1.2134 4286675904
-0.49597001 -0.66733998 -1.2131 4286675904
-0.50185001 -0.66824001 -1.2165 4286675904
-0.49937001 -0.66812003 -1.2163 4286675904
-0.49689001 -0.66799998 -1.216 4286675904
-0.50185001 -0.66751999 -1.2169 4286675904
-0.49906 -0.66693997 -1.2158 4286675904
-0.49937001 -0.66649997 -1.2172 4286675904
