# .PCD v0.7 - Point Cloud Data file format
VERSION 0.7
FIELDS x y z rgb
SIZE 4 4 4 4
TYPE F F F U
COUNT 1 1 1 1
WIDTH 1183
HEIGHT 1
VIEWPOINT 0 0 0 1 0 0 0
POINTS 1183
DATA ascii
-0.99286002 -0.56522 -1.4013 4292052569
-0.98936999 -0.56518 -1.4012001 4292052569
-0.98535001 -0.56481999 -1.4003 4292052569
-0.98295999 -0.5654 -1.4017 4292052569
-0.98003 -0.56566 -1.4024 4292052569
-0.97601002 -0.56529999 -1.4015 4292052569
-0.97254997 -0.56524003 -1.4013 4292052569
-0.96692997 -0.56392002 -1.398 4292052569
-0.96401 -0.56417 -1.3987 4292052569
-0.96002001 -0.56378001 -1.3977 4292052569
-0.95657003 -0.56370997 -1.3975 4292052569
-1.052 -0.56383002 -1.4017 4292052569
-1.049 -0.56414002 -1.4025 4292052569
-1.0472 -0.56506997 -1.4048001 4292052569
-1.0414 -0.56383997 -1.4018 4292052569
-1.0378 -0.56383997 -1.4018 4292052569
-1.0349 -0.56414002 -1.4025 4292052569
-1.0308 -0.56383002 -1.4017 4292052569
-1.0283999 -0.56444001 -1.4032 4292052569
-1.0249 -0.56443 -1.4032 4292052569
-1.0208 -0.56410003 -1.4024 4292052569
-1.0168 -0.56377 -1.4016 4292052569
-1.0138 -0.56405997 -1.4023 4292052569
-1.0103 -0.56404001 -1.4023 4292052569
-1.0068001 -0.56401002 -1.4022 4292052569
-1.0044 -0.56459999 -1.4037 4292052569
-1.0003999 -0.56426001 -1.4028 4292052569
-0.99689001 -0.56422001 -1.4026999 4292052569
-0.99449998 -0.56480002 -1.4042 4292052569
-0.99046999 -0.56445003 -1.4033 4292052569
-0.98588997 -0.56378001 -1.4016 4292052569
-0.98295999 -0.56404001 -1.4023 4292052569
-0.98003 -0.56431001 -1.4029 4292052569
-0.97709 -0.56457001 -1.4036 4292052569
-0.97307998 -0.56419998 -1.4026999 4292052569
-0.96961999 -0.56414002 -1.4025 4292052569
-0.96669 -0.56439 -1.4031 4292052569
-0.96323001 -0.56432003 -1.403 4292052569
-0.95924002 -0.56393999 -1.402 4292052569
-0.95258999 -0.56197 -1.3971 4292052569
-1.0531 -0.56308001 -1.4038 4292052569
-1.0506999 -0.56370002 -1.4053 4292052569
-1.0483 -0.56432003 -1.4069 4292052569
-1.0414 -0.56248999 -1.4023 4292052569
-1.0378 -0.56248999 -1.4023 4292052569
-1.0355 -0.56309998 -1.4038 4292052569
-1.0325 -0.56339997 -1.4046 4292052569
-1.0295 -0.56370002 -1.4053 4292052569
-1.0266 -0.56400001 -1.4061 4292052569
-1.0231 -0.56397998 -1.406 4292052569
-1.0196 -0.56396002 -1.406 4292052569
-1.0166 -0.56424999 -1.4067 4292052569
-1.0131 -0.56423002 -1.4067 4292052569
-1.0074 -0.56296998 -1.4035 4292052569
-1.0028 -0.56230998 -1.4019001 4292052569
-1.0003999 -0.56290001 -1.4033 4292052569
-0.99743998 -0.56318003 -1.404 4292052569
-0.99449998 -0.56344998 -1.4047 4292052569
-0.99101001 -0.56340998 -1.4046 4292052569
-0.98807001 -0.56367999 -1.4053 4292052569
-0.98242003 -0.56238002 -1.402 4292052569
-0.98003 -0.56295002 -1.4035 4292052569
-0.97601002 -0.56259 -1.4026 4292052569
-0.97307998 -0.56283998 -1.4032 4292052569
-0.97014999 -0.56309998 -1.4038 4292052569
-0.96669 -0.56304002 -1.4037 4292052569
-0.96269 -0.56265998 -1.4026999 4292052569
-0.95977002 -0.56290001 -1.4033 4292052569
-0.95578003 -0.56252003 -1.4024 4292052569
-0.94703001 -0.55928999 -1.3943 4292052569
-1.052 -0.56107998 -1.4028 4292052569
-1.0496 -0.56169999 -1.4044 4292052569
-1.0443 -0.56079 -1.4021 4292052569
-1.0397 -0.56018001 -1.4006 4292052569
-1.0367 -0.56048 -1.4013 4292052569
-1.0349 -0.5614 -1.4036 4292052569
-1.0325 -0.56200999 -1.4051 4292052569
-1.0301 -0.56260997 -1.4067 4292052569
-1.0271 -0.56291002 -1.4074 4292052569
-1.0214 -0.56165999 -1.4043 4292052569
-1.0179 -0.56164002 -1.4042 4292052569
-1.0138 -0.56130999 -1.4033999 4292052569
-1.0087 -0.56036001 -1.401 4292052569
-1.0057 -0.56063998 -1.4017 4292052569
-1.0028 -0.56092 -1.4024 4292052569
-0.99983001 -0.56120002 -1.4031 4292052569
-0.99689001 -0.56146997 -1.4038 4292052569
-0.99449998 -0.56206 -1.4053 4292052569
-0.9921 -0.56264001 -1.4067 4292052569
-0.98970997 -0.56322002 -1.4082 4292052569
-0.98295999 -0.56129998 -1.4033999 4292052569
-0.98057002 -0.56186998 -1.4048001 4292052569
-0.97654998 -0.56151003 -1.4039 4292052569
-0.97416002 -0.56208003 -1.4053 4292052569
-0.97069001 -0.56202 -1.4052 4292052569
-0.96882999 -0.56290001 -1.4074 4292052569
-0.96269 -0.56125998 -1.4033 4292052569
-0.95578003 -0.56111997 -1.4029 4292052569
-1.056 -0.5618 -1.4087 4292052569
-1.0518 -0.56151003 -1.408 4292052569
-1.0472 -0.56090999 -1.4065 4292052569
-1.0425 -0.56029999 -1.405 4292052569
-1.0373 -0.55939001 -1.4026999 4292052569
-1.0349 -0.56 -1.4042 4292052569
-1.0331 -0.56090999 -1.4065 4292052569
-1.0312001 -0.56181997 -1.4088 4292052569
-1.0283 -0.56211001 -1.4095 4292052569
-1.0247 -0.56209999 -1.4095 4292052569
-1.0201 -0.56146997 -1.4079 4292052569
-1.0154999 -0.56084001 -1.4062999 4292052569
-1.0109 -0.56019998 -1.4047 4292052569
-1.0057 -0.55923998 -1.4023 4292052569
-1.0028 -0.55952001 -1.403 4292052569
-1.0003999 -0.56010997 -1.4045 4292052569
-0.99689001 -0.56006998 -1.4044 4292052569
-0.99505001 -0.56095999 -1.4066 4292052569
-0.99264997 -0.56154001 -1.4081 4292052569
-0.99080002 -0.56243002 -1.4103 4292052569
-0.98730999 -0.56238002 -1.4102 4292052569
-0.98273998 -0.56171 -1.4085 4292052569
-0.97763002 -0.56072998 -1.406 4292052569
-0.97416002 -0.56067002 -1.4059 4292052569
-0.97229999 -0.56155002 -1.4081 4292052569
-0.97043997 -0.56243002 -1.4103 4292052569
-0.9659 -0.56173998 -1.4086 4292052569
-0.96243 -0.56167001 -1.4084001 4292052569
-0.95630997 -0.56004 -1.4043 4292052569
-0.95020998 -0.55839002 -1.4002 4292052569
-1.0582 -0.56160998 -1.4123 4292052569
-1.0547 -0.56162 -1.4124 4292052569
-1.0506001 -0.56133002 -1.4116 4292052569
-1.0448 -0.56011999 -1.4086 4292052569
-1.0407 -0.55980998 -1.4078 4292052569
-1.0377001 -0.56011999 -1.4086 4292052569
-1.0353 -0.56072003 -1.4101 4292052569
-1.0329 -0.56133002 -1.4116 4292052569
-1.0283 -0.5607 -1.4101 4292052569
-1.0259 -0.56129998 -1.4116 4292052569
-1.0223 -0.56129003 -1.4115 4292052569
-1.0183001 -0.56095999 -1.4107 4292052569
-1.0148 -0.56094003 -1.4107 4292052569
-1.0096 -0.56 -1.4083 4292052569
-1.0061001 -0.55997002 -1.4082 4292052569
-1.0026 -0.55993998 -1.4081 4292052569
-0.99963999 -0.56020999 -1.4088 4292052569
-0.99668998 -0.56048 -1.4095 4292052569
-0.9932 -0.56044 -1.4094 4292052569
-0.99024999 -0.56071001 -1.4101 4292052569
-0.98622 -0.56035 -1.4092 4292052569
-0.98328 -0.56062001 -1.4098001 4292052569
-0.98088002 -0.56119001 -1.4112999 4292052569
-0.97685999 -0.56081998 -1.4104 4292052569
-0.97391999 -0.56107998 -1.411 4292052569
-0.97043997 -0.56102002 -1.4108 4292052569
-0.96803999 -0.56158 -1.4123 4292052569
-0.96509999 -0.56182998 -1.4129 4292052569
-0.95844001 -0.55988002 -1.408 4292052569
-0.95339 -0.55887002 -1.4054 4292052569
-1.0565 -0.55928999 -1.4105999 4292052569
-1.0513 -0.55839002 -1.4083 4292052569
-1.0494 -0.55931002 -1.4107 4292052569
-1.0465 -0.55962002 -1.4114 4292052569
-1.0429 -0.55962002 -1.4114 4292052569
-1.04 -0.55992001 -1.4122 4292052569
-1.0348001 -0.55901003 -1.4099 4292052569
-1.0307 -0.55870003 -1.4091001 4292052569
-1.0266 -0.55838001 -1.4083 4292052569
-1.0242 -0.55897999 -1.4098001 4292052569
-1.0218 -0.55957001 -1.4112999 4292052569
-1.0199 -0.56046999 -1.4136 4292052569
-1.0164 -0.56045002 -1.4135 4292052569
-1.0107 -0.55919999 -1.4104 4292052569
-1.0072 -0.55917001 -1.4103 4292052569
-1.0031 -0.55883998 -1.4095 4292052569
-1.0002 -0.55910999 -1.4101 4292052569
-0.99778003 -0.55969 -1.4116 4292052569
-0.99428999 -0.55965 -1.4115 4292052569
-0.98970997 -0.55899 -1.4098001 4292052569
-0.98567998 -0.55864 -1.409 4292052569
-0.98219001 -0.55858999 -1.4088 4292052569
-0.97871 -0.55853999 -1.4087 4292052569
-0.97632003 -0.55909997 -1.4101 4292052569
-0.97338003 -0.55936003 -1.4108 4292052569
-0.97097999 -0.55992001 -1.4122 4292052569
-0.96856999 -0.56048 -1.4136 4292052569
-0.96297002 -0.55917001 -1.4103 4292052569
-0.95950001 -0.55909997 -1.4101 4292052569
-0.95657003 -0.55934 -1.4107 4292052569
-1.0577 -0.55848002 -1.4127001 4292052569
-1.053 -0.55789 -1.4112 4292052569
-1.0506001 -0.55849999 -1.4127001 4292052569
-1.0482 -0.55910999 -1.4143 4292052569
-1.0446 -0.55912 -1.4143 4292052569
-1.0411 -0.55912 -1.4143 4292052569
-1.0353 -0.55790001 -1.4112 4292052569
-1.0312001 -0.55759001 -1.4104 4292052569
-1.0276999 -0.55757999 -1.4104 4292052569
-1.0253 -0.55817997 -1.4119 4292052569
-1.0229 -0.55877 -1.4134001 4292052569
-1.0199 -0.55905998 -1.4141001 4292052569
-1.0164 -0.55904001 -1.4141001 4292052569
-1.0129 -0.55901998 -1.414 4292052569
-1.0088 -0.55868 -1.4132 4292052569
-1.0042 -0.55804002 -1.4116 4292052569
-1.0007 -0.55800998 -1.4115 4292052569
-0.99833 -0.55858999 -1.4129 4292052569
-0.99537998 -0.55886 -1.4136 4292052569
-0.99188 -0.55881 -1.4135 4292052569
-0.98839003 -0.55877 -1.4134001 4292052569
-0.98544002 -0.55903 -1.4141001 4292052569
-0.98034 -0.55805999 -1.4116 4292052569
-0.97632003 -0.55769002 -1.4107 4292052569
-0.97444999 -0.55857003 -1.4129 4292052569
-0.97150999 -0.55882001 -1.4135 4292052569
-0.96856999 -0.55906999 -1.4141999 4292052569
-0.96297002 -0.55776 -1.4109 4292052569
-0.95950001 -0.55769002 -1.4107 4292052569
-0.95709997 -0.55824 -1.4121 4292052569
-1.0588 -0.55767 -1.4148 4292052569
-1.0558 -0.55799001 -1.4155999 4292052569
-1.0523 -0.55800003 -1.4155999 4292052569
-1.0493 -0.55830002 -1.4164 4292052569
-1.0452 -0.55800998 -1.4155999 4292052569
-1.0411 -0.55769998 -1.4148999 4292052569
-1.0359 -0.55678999 -1.4125 4292052569
-1.0318 -0.55647999 -1.4118 4292052569
-1.0283 -0.55646998 -1.4117 4292052569
-1.0264 -0.55737001 -1.414 4292052569
-1.0229 -0.55735999 -1.414 4292052569
-1.0199 -0.55765003 -1.4147 4292052569
-1.0164 -0.55763 -1.4147 4292052569
-1.0129 -0.55760002 -1.4146 4292052569
-1.0094 -0.55757999 -1.4145 4292052569
-1.0064 -0.55785 -1.4152 4292052569
-1.0039999 -0.55843002 -1.4167 4292052569
-0.99833 -0.55716997 -1.4135 4292052569
-0.99537998 -0.55743998 -1.4141999 4292052569
-0.99242997 -0.55770999 -1.4148999 4292052569
-0.98948002 -0.55796999 -1.4155 4292052569
-0.98653001 -0.55824 -1.4162 4292052569
-0.98250002 -0.55787998 -1.4153 4292052569
-0.97738999 -0.55690002 -1.4128 4292052569
-0.97553003 -0.55777001 -1.415 4292052569
-0.97205001 -0.55770999 -1.4148999 4292052569
-0.96911001 -0.55795997 -1.4155 4292052569
-0.96509999 -0.55759001 -1.4146 4292052569
-0.96269 -0.55813998 -1.416 4292052569
-0.95921999 -0.55808002 -1.4158 4292052569
-0.95469999 -0.55738002 -1.414 4292052569
-1.0588 -0.55631 -1.4153 4292052569
-1.0541 -0.55571997 -1.4138 4292052569
-1.0506001 -0.55572999 -1.4138 4292052569
-1.0482 -0.55633998 -1.4154 4292052569
-1.0452 -0.55664998 -1.4162 4292052569
-1.0411 -0.55633998 -1.4154 4292052569
-1.0364 -0.55574 -1.4138 4292052569
-1.0329 -0.55572999 -1.4138 4292052569
-1.0299 -0.55602998 -1.4146 4292052569
-1.0287 -0.55723 -1.4176 4292052569
-1.024 -0.55660999 -1.4161 4292052569
-1.021 -0.55689001 -1.4168 4292052569
-1.0175 -0.55686998 -1.4167 4292052569
-1.0129 -0.55624002 -1.4151 4292052569
-1.0094 -0.55622 -1.4151 4292052569
-1.0059 -0.55619001 -1.415 4292052569
-1.0013 -0.55554003 -1.4134001 4292052569
-0.99778003 -0.55550998 -1.4133 4292052569
-0.99483001 -0.55577999 -1.4139 4292052569
-0.99001998 -0.55691999 -1.4169 4292052569
-0.98707002 -0.55717999 -1.4175 4292052569
-0.98250002 -0.55651999 -1.4158 4292052569
-0.97847003 -0.55615997 -1.4148999 4292052569
-0.97553003 -0.55641001 -1.4155999 4292052569
-0.97258002 -0.55666 -1.4162 4292052569
-0.96964002 -0.55690998 -1.4168 4292052569
-0.96616 -0.55685002 -1.4167 4292052569
-0.96322 -0.55708998 -1.4173 4292052569
-0.95921999 -0.55671 -1.4163001 4292052569
-0.95416999 -0.55571002 -1.4138 4292052569
-1.0617 -0.55646002 -1.4197 4292052569
-1.0553 -0.55497998 -1.4159 4292052569
-1.0517 -0.55498999 -1.4159 4292052569
-1.0487 -0.55528998 -1.4167 4292052569
-1.0458 -0.55559999 -1.4175 4292052569
-1.0417 -0.5553 -1.4167 4292052569
-1.0369999 -0.55469 -1.4151 4292052569
-1.034 -0.55498999 -1.4159 4292052569
-1.0322 -0.55589002 -1.4182 4292052569
-1.0298001 -0.55647999 -1.4197 4292052569
-1.0246 -0.55555999 -1.4174 4292052569
-1.021 -0.55554003 -1.4173 4292052569
-1.0175 -0.55553001 -1.4173 4292052569
-1.0151 -0.55611002 -1.4188 4292052569
-1.0088 -0.55456001 -1.4148 4292052569
-1.0064 -0.55514002 -1.4163001 4292052569
-1.0035 -0.55541998 -1.4170001 4292052569
-0.99943 -0.55508 -1.4161 4292052569
-0.99593002 -0.55504 -1.416 4292052569
-0.99461001 -0.55623001 -1.4191 4292052569
-0.99111003 -0.55618 -1.4189 4292052569
-0.98815 -0.55645001 -1.4196 4292052569
-0.98412001 -0.55609 -1.4187 4292052569
-0.98117 -0.55634999 -1.4194 4292052569
-0.97820997 -0.55659997 -1.42 4292052569
-0.97419 -0.55624002 -1.4191 4292052569
-0.97017002 -0.55587 -1.4181 4292052569
-0.96723002 -0.55611998 -1.4188 4292052569
-0.96482003 -0.55667001 -1.4202 4292052569
-0.96081001 -0.55628997 -1.4191999 4292052569
-0.95734 -0.55622 -1.4191 4292052569
-1.0611 -0.55470997 -1.4195 4292052569
-1.0563999 -0.55413002 -1.418 4292052569
-1.0546 -0.55502999 -1.4203 4292052569
-1.0499001 -0.55444002 -1.4188 4292052569
-1.0469 -0.55475003 -1.4196 4292052569
-1.0434 -0.55475003 -1.4196 4292052569
-1.0381 -0.55385 -1.4172 4292052569
-1.0362999 -0.55475003 -1.4195 4292052569
-1.0326999 -0.55474001 -1.4195 4292052569
-1.0309 -0.55563003 -1.4218 4292052569
-1.0296 -0.55682999 -1.4249001 4292052569
-1.0227 -0.55500001 -1.4202 4292052569
-1.0192 -0.55497998 -1.4202 4292052569
-1.0146 -0.55435997 -1.4186 4292052569
-1.0111001 -0.55432999 -1.4184999 4292052569
-1.007 -0.55400002 -1.4176 4292052569
-1.0035 -0.55396998 -1.4176 4292052569
-0.99943 -0.55362999 -1.4167 4292052569
-0.99593002 -0.55359 -1.4166 4292052569
-0.99352002 -0.55416 -1.4181 4292052569
-0.99111003 -0.55473 -1.4195 4292052569
-0.98815 -0.55498999 -1.4202 4292052569
-0.98574001 -0.55555999 -1.4216 4292052569
-0.98277998 -0.55581999 -1.4223 4292052569
-0.97983003 -0.55607003 -1.4229 4292052569
-0.97473001 -0.55509001 -1.4204 4292052569
-0.96964002 -0.55410999 -1.4179 4292052569
-0.96670002 -0.55435997 -1.4186 4292052569
-0.96375 -0.5546 -1.4191999 4292052569
-0.96028 -0.55453002 -1.419 4292052569
-0.95681 -0.55445999 -1.4188 4292052569
-0.95017999 -0.55254 -1.4139 4292052569
-1.0605 -0.55291998 -1.4193 4292052569
-1.0576 -0.55322999 -1.4201 4292052569
-1.0551 -0.55383998 -1.4216 4292052569
-1.0499001 -0.55295002 -1.4194 4292052569
-1.0469 -0.55325001 -1.4201 4292052569
-1.0439 -0.55356002 -1.4209 4292052569
-1.0398 -0.55325001 -1.4201 4292052569
-1.038 -0.55414999 -1.4224 4292052569
-1.0322 -0.55294001 -1.4193 4292052569
-1.0281 -0.55263001 -1.4184999 4292052569
-1.0246 -0.55261999 -1.4184999 4292052569
-1.0216 -0.55290002 -1.4191999 4292052569
-1.0186 -0.55318999 -1.42 4292052569
-1.0146 -0.55286002 -1.4191 4292052569
-1.0127 -0.55374998 -1.4214 4292052569
-1.0081 -0.55311 -1.4198 4292052569
-1.0039999 -0.55277997 -1.4189 4292052569
-1.0005 -0.55274999 -1.4188 4292052569
-0.99702001 -0.55271 -1.4187 4292052569
-0.99352002 -0.55267 -1.4186 4292052569
-0.99056 -0.55293 -1.4193 4292052569
-0.98707002 -0.55289 -1.4191999 4292052569
-0.98412001 -0.55315 -1.4198999 4292052569
-0.98009002 -0.55278999 -1.4189 4292052569
-0.97714001 -0.55304003 -1.4196 4292052569
-0.97526002 -0.55391002 -1.4218 4292052569
-0.97017002 -0.55293 -1.4193 4292052569
-0.96616 -0.55255997 -1.4184 4292052569
-0.96269 -0.55249 -1.4182 4292052569
-0.96081001 -0.55334997 -1.4204 4292052569
-0.95681 -0.55296999 -1.4194 4292052569
-1.0623 -0.55242997 -1.4220999 4292052569
-1.0587 -0.55243999 -1.4220999 4292052569
-1.0563 -0.55304998 -1.4237 4292052569
-1.0516 -0.55246001 -1.4222 4292052569
-1.0475 -0.55216998 -1.4214 4292052569
-1.0451 -0.55277002 -1.423 4292052569
-1.0421 -0.55307001 -1.4238 4292052569
-1.0391001 -0.55337 -1.4245 4292052569
-1.0355999 -0.55335999 -1.4245 4292052569
-1.0319999 -0.55334997 -1.4245 4292052569
-1.0274 -0.55273998 -1.4229 4292052569
-1.0238 -0.55273002 -1.4229 4292052569
-1.0203 -0.55271 -1.4227999 4292052569
-1.0173 -0.55299002 -1.4236 4292052569
-1.0132999 -0.55267 -1.4227 4292052569
-1.0108 -0.55324 -1.4242001 4292052569
-1.0073 -0.55321997 -1.4241 4292052569
-1.0033 -0.55287999 -1.4233 4292052569
-1.0014 -0.55375999 -1.4255 4292052569
-0.99678999 -0.55311 -1.4239 4292052569
-0.99219 -0.55247003 -1.4222 4292052569
-0.98869002 -0.55242002 -1.4220999 4292052569
-0.98412001 -0.55176997 -1.4204 4292052569
-0.98009002 -0.55141002 -1.4195 4292052569
-0.97768003 -0.55197001 -1.4209 4292052569
-0.97579998 -0.55282998 -1.4231 4292052569
-0.97338003 -0.55338001 -1.4246 4292052569
-0.96935999 -0.55302 -1.4236 4292052569
-0.96587998 -0.55295002 -1.4234999 4292052569
-0.96293002 -0.55320001 -1.4241 4292052569
-0.95998001 -0.55343002 -1.4247 4292052569
-0.95229 -0.55089998 -1.4182 4292052569
-1.0628 -0.55137002 -1.4234 4292052569
-1.0587 -0.55109 -1.4227 4292052569
-1.0568 -0.55198997 -1.425 4292052569
-1.0533 -0.55199999 -1.425 4292052569
-1.048 -0.55111998 -1.4227 4292052569
-1.0451 -0.55141997 -1.4234999 4292052569
-1.0426 -0.55201 -1.4251 4292052569
-1.0391001 -0.55201 -1.425 4292052569
-1.0344 -0.55141002 -1.4234999 4292052569
-1.0315 -0.5517 -1.4242001 4292052569
-1.0279 -0.55168998 -1.4242001 4292052569
-1.0255001 -0.55227 -1.4256999 4292052569
-1.0225 -0.55255997 -1.4265 4292052569
-1.0201 -0.55313998 -1.428 4292052569
-1.0171 -0.55342001 -1.4287 4292052569
-1.013 -0.55309999 -1.4278001 4292052569
-1.0079 -0.55216002 -1.4254 4292052569
-1.0044 -0.55212998 -1.4254 4292052569
-1.0019 -0.55269998 -1.4268 4292052569
-0.99787998 -0.55236 -1.426 4292052569
-0.99327999 -0.55172002 -1.4243 4292052569
-0.99032003 -0.55198002 -1.425 4292052569
-0.98628002 -0.55163002 -1.4241 4292052569
-0.98277998 -0.55158001 -1.4239 4292052569
-0.97983003 -0.55182999 -1.4246 4292052569
-0.97579998 -0.55146998 -1.4237 4292052569
-0.97178 -0.55111003 -1.4227 4292052569
-0.96935999 -0.55166 -1.4241 4292052569
-0.96640998 -0.55190998 -1.4248 4292052569
-0.96398997 -0.55245 -1.4262 4292052569
-0.95945001 -0.55176997 -1.4244 4292052569
-0.95493001 -0.55109 -1.4227 4292052569
-1.064 -0.55049002 -1.4255 4292052569
-1.0598 -0.55021 -1.4248 4292052569
-1.0563 -0.55023003 -1.4248 4292052569
-1.0522 -0.54993999 -1.4241 4292052569
-1.0492001 -0.55023998 -1.4248 4292052569
-1.0462 -0.55053997 -1.4256001 4292052569
-1.0421 -0.55024999 -1.4249001 4292052569
-1.038 -0.54993999 -1.4241 4292052569
-1.0339 -0.54964 -1.4233 4292052569
-1.0309 -0.54992998 -1.424 4292052569
-1.0268 -0.54961997 -1.4232 4292052569
-1.0244 -0.55019999 -1.4247 4292052569
-1.0214 -0.55049002 -1.4255 4292052569
-1.0184 -0.55076998 -1.4262 4292052569
-1.0154999 -0.55105001 -1.4269 4292052569
-1.0114 -0.55071998 -1.4261 4292052569
-1.0084 -0.55098999 -1.4268 4292052569
-1.0044 -0.55066001 -1.4259 4292052569
-1.0014 -0.55093002 -1.4266 4292052569
-0.99515003 -0.54938 -1.4226 4292052569
-0.99164999 -0.54934001 -1.4225 4292052569
-0.98923999 -0.5499 -1.424 4292052569
-0.98519999 -0.54955 -1.4231 4292052569
-0.98386002 -0.55071998 -1.4261 4292052569
-0.98035997 -0.55067003 -1.4259 4292052569
-0.97741002 -0.55092001 -1.4266 4292052569
-0.97231001 -0.54995 -1.4241 4292052569
-0.96829998 -0.54957998 -1.4231 4292052569
-0.96482003 -0.54952002 -1.423 4292052569
-0.96346003 -0.55067998 -1.426 4292052569
-0.95945001 -0.5503 -1.425 4292052569
-1.0657001 -0.54986 -1.4284 4292052569
-1.0627 -0.55017 -1.4292001 4292052569
-1.0574 -0.54930001 -1.4269 4292052569
-1.0527 -0.54872 -1.4254 4292052569
-1.0497 -0.54901999 -1.4262 4292052569
-1.0468 -0.54931998 -1.427 4292052569
-1.0421 -0.54873002 -1.4254 4292052569
-1.0402 -0.54961997 -1.4277 4292052569
-1.0361 -0.54931003 -1.427 4292052569
-1.0326 -0.54931003 -1.4269 4292052569
-1.0296 -0.54958999 -1.4277 4292052569
-1.0261 -0.54957998 -1.4277 4292052569
-1.0225 -0.54956001 -1.4276 4292052569
-1.0184 -0.54925001 -1.4268 4292052569
-1.016 -0.54982001 -1.4283 4292052569
-1.0125 -0.54979998 -1.4282 4292052569
-1.0095 -0.55006999 -1.4289 4292052569
-1.0065 -0.55034 -1.4296 4292052569
-1.0036 -0.55061001 -1.4303 4292052569
-0.99678999 -0.54877001 -1.4255 4292052569
-0.99273998 -0.54843003 -1.4247 4292052569
-0.9914 -0.54958999 -1.4277 4292052569
-0.98898 -0.55014998 -1.4291 4292052569
-0.98601002 -0.55040997 -1.4298 4292052569
-0.98250997 -0.55036002 -1.4297 4292052569
-0.97955 -0.55061001 -1.4303 4292052569
-0.97444999 -0.54964 -1.4278001 4292052569
-0.96882999 -0.54837 -1.4245 4292052569
-0.96693999 -0.54922003 -1.4267 4292052569
-0.96504998 -0.55006999 -1.4289 4292052569
-0.96315002 -0.55092001 -1.4311 4292052569
-0.95914 -0.55053997 -1.4302 4292052569
-1.0657001 -0.54834998 -1.429 4292052569
-1.0633 -0.54895997 -1.4305 4292052569
-1.0597 -0.54896998 -1.4306 4292052569
-1.0573 -0.54957002 -1.4321001 4292052569
-1.0513999 -0.54839998 -1.4291 4292052569
-1.0479 -0.54839998 -1.4291 4292052569
-1.0443 -0.54841 -1.4291 4292052569
-1.0413001 -0.54869998 -1.4299001 4292052569
-1.0372 -0.54839998 -1.4291 4292052569
-1.0343 -0.54869002 -1.4298 4292052569
-1.0324 -0.54957002 -1.4321001 4292052569
-1.0294 -0.54986 -1.4329 4292052569
-1.0281 -0.55103999 -1.436 4292052569
-1.0211999 -0.54922998 -1.4313 4292052569
-1.0171 -0.54891002 -1.4304 4292052569
-1.013 -0.54859 -1.4296 4292052569
-1.0106 -0.54916 -1.4311 4292052569
-1.0075999 -0.54943001 -1.4318 4292052569
-1.0041 -0.54939997 -1.4317 4292052569
-1.0006 -0.54936999 -1.4316 4292052569
-0.99599999 -0.54873002 -1.4299001 4292052569
-0.99194998 -0.54838997 -1.4291 4292052569
-0.98952001 -0.54895002 -1.4305 4292052569
-0.98708999 -0.54949999 -1.432 4292052569
-0.98466003 -0.55005997 -1.4334 4292052569
-0.98062003 -0.54970998 -1.4325 4292052569
-0.97711998 -0.54965001 -1.4323 4292052569
-0.97362 -0.54960001 -1.4322 4292052569
-0.96801001 -0.54832 -1.4289 4292052569
-0.96504998 -0.54856002 -1.4295 4292052569
-0.96210003 -0.54879999 -1.4301 4292052569
-0.95670998 -0.54957002 -1.4321001 4292052569
-1.0663 -0.54714 -1.4303 4292052569
-1.0633 -0.54745001 -1.4311 4292052569
-1.0591 -0.54716998 -1.4304 4292052569
-1.0561 -0.54747999 -1.4312 4292052569
-1.0513999 -0.54689997 -1.4297 4292052569
-1.0479 -0.54689997 -1.4297 4292052569
-1.0448999 -0.54720002 -1.4304 4292052569
-1.0413001 -0.54720002 -1.4304 4292052569
-1.0367 -0.54659998 -1.4289 4292052569
-1.0331 -0.54658997 -1.4289 4292052569
-1.0302 -0.54688001 -1.4296 4292052569
-1.0272 -0.54716998 -1.4304 4292052569
-1.0247 -0.54773998 -1.4319 4292052569
-1.0201 -0.54712999 -1.4303 4292052569
-1.016 -0.54680997 -1.4294 4292052569
-1.0136 -0.54738998 -1.4309 4292052569
-1.0095 -0.54706001 -1.4301 4292052569
-1.0071 -0.54763001 -1.4316 4292052569
-1.0025001 -0.54699999 -1.4299001 4292052569
-0.99950999 -0.54725999 -1.4306 4292052569
-0.99763 -0.54812002 -1.4329 4292052569
-0.99303001 -0.54747999 -1.4312 4292052569
-0.98898 -0.54714 -1.4303 4292052569
-0.98548001 -0.54708999 -1.4302 4292052569
-0.98198003 -0.54703999 -1.4299999 4292052569
-0.97955 -0.54759997 -1.4315 4292052569
-0.97711998 -0.54813999 -1.4329 4292052569
-0.97362 -0.54808998 -1.4328001 4292052569
-0.97172999 -0.54894 -1.4349999 4292052569
-0.96664 -0.54797 -1.4325 4292052569
-0.96315002 -0.54790002 -1.4323 4292052569
-0.95862001 -0.54723001 -1.4305 4292052569
-1.0685 -0.54698002 -1.4339 4292052569
-1.0655 -0.54729003 -1.4347 4292052569
-1.0597 -0.54614002 -1.4317 4292052569
-1.0573 -0.54672998 -1.4332 4292052569
-1.0526 -0.54615998 -1.4317 4292052569
-1.0496 -0.54645997 -1.4325 4292052569
-1.0443 -0.54557002 -1.4302 4292052569
-1.0419 -0.54615998 -1.4317 4292052569
-1.0389 -0.54645997 -1.4325 4292052569
-1.0348001 -0.54615003 -1.4317 4292052569
-1.0318 -0.54644001 -1.4325 4292052569
-1.0294 -0.54702002 -1.434 4292052569
-1.0264 -0.54729998 -1.4347 4292052569
-1.0229 -0.54729003 -1.4347 4292052569
-1.0177 -0.54637998 -1.4323 4292052569
-1.0147001 -0.54664999 -1.433 4292052569
-1.0112 -0.54663002 -1.4329 4292052569
-1.0075999 -0.54659998 -1.4329 4292052569
-1.0041 -0.54657 -1.4328001 4292052569
-1.0006 -0.54653001 -1.4327 4292052569
-0.99763 -0.54679 -1.4334 4292052569
-0.99248999 -0.54585999 -1.4309 4292052569
-0.99059999 -0.54671001 -1.4332 4292052569
-0.98601002 -0.54606998 -1.4315 4292052569
-0.98250997 -0.54601997 -1.4313 4292052569
-0.98009002 -0.54657 -1.4328001 4292052569
-0.97711998 -0.54680997 -1.4334 4292052569
-0.97469002 -0.54736 -1.4349 4292052569
-0.97279 -0.54821002 -1.4371001 4292052569
-0.96876001 -0.54785001 -1.4361 4292052569
-0.96579999 -0.54808003 -1.4368 4292052569
-0.96178001 -0.54772002 -1.4358 4292052569
-0.95618999 -0.54642999 -1.4324 4292052569
-1.0697 -0.54624999 -1.4359 4292052569
-1.0650001 -0.54569 -1.4344 4292052569
-1.0614001 -0.54570001 -1.4345 4292052569
-1.059 -0.54629999 -1.436 4292052569
-1.0554 -0.54631001 -1.4361 4292052569
-1.0513 -0.54601997 -1.4353 4292052569
-1.0477 -0.54602998 -1.4353 4292052569
-1.0447 -0.54632002 -1.4361 4292052569
-1.0412 -0.54632002 -1.4361 4292052569
-1.0365 -0.54572999 -1.4345 4292052569
-1.0329 -0.54571998 -1.4345 4292052569
-1.0305001 -0.54629999 -1.436 4292052569
-1.027 -0.54628998 -1.436 4292052569
-1.0229 -0.54597998 -1.4352 4292052569
-1.0188 -0.54566002 -1.4342999 4292052569
-1.0163 -0.54623002 -1.4358 4292052569
-1.0128 -0.54620999 -1.4358 4292052569
-1.0087 -0.54588002 -1.4349 4292052569
-1.0052 -0.54584998 -1.4348 4292052569
-1.0028 -0.54641002 -1.4363 4292052569
-0.99817002 -0.54578 -1.4347 4292052569
-0.99574 -0.54633999 -1.4361 4292052569
-0.99276 -0.54659998 -1.4368 4292052569
-0.98925 -0.54654998 -1.4367 4292052569
-0.98627001 -0.54680997 -1.4374 4292052569
-0.98168999 -0.54615998 -1.4357001 4292052569
-0.97819 -0.54610002 -1.4355 4292052569
-0.97575998 -0.54664999 -1.4369 4292052569
-0.97172999 -0.54628998 -1.436 4292052569
-0.96823001 -0.54623002 -1.4358 4292052569
-0.96368003 -0.54556 -1.4341 4292052569
-0.96072 -0.54579997 -1.4347 4292052569
-0.95670998 -0.54541999 -1.4337 4292052569
-1.0685 -0.54417998 -1.4349 4292052569
-1.0638 -0.54361999 -1.4334 4292052569
-1.0614001 -0.54421997 -1.4349999 4292052569
-1.0584 -0.54452002 -1.4358 4292052569
-1.0554 -0.54482001 -1.4366 4292052569
-1.0518 -0.54483002 -1.4366 4292052569
-1.0483 -0.54483002 -1.4367 4292052569
-1.0447 -0.54483998 -1.4367 4292052569
-1.0389 -0.54365999 -1.4335999 4292052569
-1.0365 -0.54424 -1.4351 4292052569
-1.0341001 -0.54482001 -1.4366 4292052569
-1.0311 -0.54510999 -1.4374 4292052569
-1.027 -0.54479998 -1.4366 4292052569
-1.0229 -0.54448998 -1.4357001 4292052569
-1.0193 -0.54447001 -1.4357001 4292052569
-1.0168999 -0.54504001 -1.4372 4292052569
-1.0139 -0.54531002 -1.4378999 4292052569
-1.0104001 -0.54528999 -1.4378 4292052569
-1.0052 -0.54435998 -1.4354 4292052569
-1.0017 -0.54433 -1.4353 4292052569
-0.99817002 -0.54429001 -1.4352 4292052569
-0.99628001 -0.54514998 -1.4375 4292052569
-0.99276 -0.54510999 -1.4374 4292052569
-0.98979002 -0.54536003 -1.438 4292052569
-0.98627001 -0.54531997 -1.4378999 4292052569
-0.98223001 -0.54496998 -1.437 4292052569
-0.97872001 -0.54492003 -1.4369 4292052569
-0.97522002 -0.54486001 -1.4367 4292052569
-0.97065997 -0.5442 -1.4349999 4292052569
-0.96823001 -0.54474002 -1.4364001 4292052569
-0.96526998 -0.54497999 -1.437 4292052569
-0.96283001 -0.54552001 -1.4384 4292052569
-0.95828998 -0.54483998 -1.4367 4292052569
-1.0697 -0.54323 -1.437 4292052569
-1.0667 -0.54354 -1.4378999 4292052569
-1.0625 -0.54326999 -1.4371001 4292052569
-1.059 -0.54328001 -1.4372 4292052569
-1.0565 -0.54386997 -1.4387 4292052569
-1.0535001 -0.54417002 -1.4395 4292052569
-1.0505 -0.54447001 -1.4403 4292052569
-1.0464 -0.54417998 -1.4396 4292052569
-1.0417 -0.54360002 -1.438 4292052569
-1.0387 -0.54389 -1.4388 4292052569
-1.0346 -0.54359001 -1.438 4292052569
-1.0316 -0.54386997 -1.4387 4292052569
-1.0286 -0.54414999 -1.4395 4292052569
-1.024 -0.54355001 -1.4378999 4292052569
-1.0193 -0.54294002 -1.4363 4292052569
-1.0168999 -0.54351002 -1.4378 4292052569
-1.015 -0.54437 -1.4401 4292052569
-1.0104001 -0.54374999 -1.4384 4292052569
-1.0068001 -0.54372001 -1.4383 4292052569
-1.0039001 -0.54399002 -1.439 4292052569
-1.0009 -0.54425001 -1.4397 4292052569
-0.99844998 -0.54481 -1.4412 4292052569
-0.99545997 -0.54505998 -1.4419 4292052569
-0.9914 -0.54471999 -1.441 4292052569
-0.98734999 -0.54438001 -1.4401 4292052569
-0.98491001 -0.54492998 -1.4414999 4292052569
-0.98032999 -0.54427999 -1.4398 4292052569
-0.97681999 -0.54422998 -1.4397 4292052569
-0.97226 -0.54356998 -1.4378999 4292052569
-0.96876001 -0.54351002 -1.4378 4292052569
-0.96631998 -0.54404998 -1.4392 4292052569
-0.96441001 -0.54487997 -1.4414001 4292052569
-0.96038997 -0.54452002 -1.4404 4292052569
-0.95270997 -0.54203999 -1.4339 4292052569
-1.0703 -0.54211998 -1.4383 4292052569
-1.0667 -0.54214001 -1.4384 4292052569
-1.0631 -0.54215997 -1.4384 4292052569
-1.059 -0.54188001 -1.4377 4292052569
-1.0565 -0.54246998 -1.4392999 4292052569
-1.0541 -0.54306 -1.4408 4292052569
-1.0505 -0.54307002 -1.4409 4292052569
-1.0470001 -0.54307002 -1.4409 4292052569
-1.0427999 -0.54277998 -1.4401 4292052569
-1.0404 -0.54335999 -1.4416 4292052569
-1.0346 -0.54218 -1.4385 4292052569
-1.0311 -0.54216999 -1.4385 4292052569
-1.0286 -0.54275 -1.4400001 4292052569
-1.0256 -0.54303002 -1.4407001 4292052569
-1.0232 -0.54360002 -1.4423 4292052569
-1.0196 -0.54358 -1.4421999 4292052569
-1.015 -0.54297 -1.4406 4292052569
-1.0115 -0.54294002 -1.4405 4292052569
-1.0068001 -0.54232001 -1.4389 4292052569
-1.0044 -0.54288 -1.4404 4292052569
-1.002 -0.54343998 -1.4418 4292052569
-0.99844998 -0.54339999 -1.4417 4292052569
-0.99599999 -0.54395998 -1.4432 4292052569
-0.98979002 -0.54242998 -1.4392 4292052569
-0.98789001 -0.54326999 -1.4414001 4292052569
-0.98544002 -0.54382002 -1.4428999 4292052569
-0.98140001 -0.54347003 -1.4419 4292052569
-0.97628999 -0.54253 -1.4394 4292052569
-0.97279 -0.54246998 -1.4392999 4292052569
-0.96929002 -0.54241002 -1.4391 4292052569
-0.96684998 -0.54294002 -1.4405 4292052569
-0.96494001 -0.54378003 -1.4427 4292052569
-0.96091998 -0.54341 -1.4418 4292052569
-0.9569 -0.54303998 -1.4408 4292052569
-1.0714 -0.54131001 -1.4404 4292052569
-1.0684 -0.54162002 -1.4412 4292052569
-1.0664999 -0.54250002 -1.4436001 4292052569
-1.0624 -0.54223001 -1.4428 4292052569
-1.0588 -0.54224002 -1.4428999 4292052569
-1.0547 -0.54196 -1.4421 4292052569
-1.0505 -0.54167998 -1.4414001 4292052569
-1.0470001 -0.54167998 -1.4414001 4292052569
-1.0434 -0.54167998 -1.4414001 4292052569
-1.0393 -0.54139 -1.4406 4292052569
-1.0352 -0.54109001 -1.4398 4292052569
-1.0316 -0.54108 -1.4398 4292052569
-1.0286 -0.54136002 -1.4405 4292052569
-1.0256 -0.54163998 -1.4413 4292052569
-1.0232 -0.54220998 -1.4428 4292052569
-1.0208 -0.54277003 -1.4443001 4292052569
-1.0145 -0.54127997 -1.4403 4292052569
-1.0115 -0.54154998 -1.441 4292052569
-1.0089999 -0.54211003 -1.4425 4292052569
-1.005 -0.54179001 -1.4417 4292052569
-1.0009 -0.54145998 -1.4408 4292052569
-0.99628001 -0.54083002 -1.4391 4292052569
-0.99383998 -0.54137999 -1.4406 4292052569
-0.98979002 -0.54104 -1.4397 4292052569
-0.98789001 -0.54188001 -1.4419 4292052569
-0.98491001 -0.54212999 -1.4426 4292052569
-0.98140001 -0.54207999 -1.4425 4292052569
-0.97628999 -0.54114002 -1.4399 4292052569
-0.97385001 -0.54167998 -1.4414001 4292052569
-0.96982002 -0.54132003 -1.4404 4292052569
-0.96737999 -0.54184997 -1.4418 4292052569
-0.96336001 -0.54149002 -1.4409 4292052569
-0.95933998 -0.54111999 -1.4399 4292052569
-0.95376003 -0.53985 -1.4365 4292052569
-1.0726 -0.54049999 -1.4425 4292052569
-1.0713 -0.54167002 -1.4456 4292052569
-1.066 -0.54083002 -1.4433 4292052569
-1.0624 -0.54084003 -1.4434 4292052569
-1.0594 -0.54114002 -1.4442 4292052569
-1.0558 -0.54114997 -1.4442 4292052569
-1.0517 -0.54087001 -1.4434 4292052569
-1.0492001 -0.54145002 -1.4450001 4292052569
-1.0456001 -0.54145998 -1.4450001 4292052569
-1.0426 -0.54175001 -1.4457999 4292052569
-1.0385 -0.54145002 -1.4450001 4292052569
-1.0338 -0.54086 -1.4434 4292052569
-1.0314 -0.54143 -1.4449 4292052569
-1.0267 -0.54084003 -1.4433 4292052569
-1.0232 -0.54082 -1.4433 4292052569
-1.0202 -0.54109001 -1.444 4292052569
-1.0156 -0.54048002 -1.4424 4292052569
-1.0137 -0.54133999 -1.4447 4292052569
-1.0089999 -0.54071999 -1.4431 4292052569
-1.0066 -0.54127997 -1.4445 4292052569
-1.0003 -0.53978002 -1.4405 4292052569
-0.99790001 -0.54032999 -1.442 4292052569
-0.99545997 -0.54088002 -1.4435 4292052569
-0.99247998 -0.54113001 -1.4441 4292052569
-0.98896003 -0.54109001 -1.444 4292052569
-0.98436999 -0.54044998 -1.4423 4292052569
-0.98193002 -0.54099 -1.4438 4292052569
-0.97736001 -0.54035002 -1.442 4292052569
-0.97385001 -0.54029 -1.4419 4292052569
-0.97035003 -0.54022998 -1.4417 4292052569
-0.96684998 -0.54017001 -1.4416 4292052569
-0.96547002 -0.5413 -1.4446 4292052569
-0.96144003 -0.54092997 -1.4436001 4292052569
-0.95638001 -0.53996998 -1.441 4292052569
-1.0754 -0.54054999 -1.4468 4292052569
-1.0724 -0.54086 -1.4476 4292052569
-1.0677 -0.54030001 -1.4462 4292052569
-1.0641 -0.54031998 -1.4462 4292052569
-1.0599 -0.54005003 -1.4455 4292052569
-1.0563999 -0.54005998 -1.4455 4292052569
-1.0533 -0.54035002 -1.4463 4292052569
-1.0509 -0.54092997 -1.4478 4292052569
-1.0479 -0.54123002 -1.4486001 4292052569
-1.0432 -0.54065001 -1.4471 4292052569
-1.0402 -0.54092997 -1.4478 4292052569
-1.0355 -0.54035002 -1.4463 4292052569
-1.0314 -0.54004002 -1.4455 4292052569
-1.029 -0.54061002 -1.447 4292052569
-1.0247999 -0.54031003 -1.4462 4292052569
-1.0219001 -0.54057997 -1.4469 4292052569
-1.0194 -0.54114997 -1.4484 4292052569
-1.0159 -0.54111999 -1.4483 4292052569
-1.0123 -0.54110003 -1.4483 4292052569
-1.0082 -0.54076999 -1.4474 4292052569
-1.0052 -0.54104 -1.4481 4292052569
-1.0006 -0.54040998 -1.4464999 4292052569
-0.99708003 -0.54038 -1.4463 4292052569
-0.99247998 -0.53974998 -1.4447 4292052569
-0.99004 -0.54029 -1.4461 4292052569
-0.98705 -0.54053998 -1.4468 4292052569
-0.98460001 -0.54108 -1.4482 4292052569
-0.98109001 -0.54102999 -1.4481 4292052569
-0.97703999 -0.54067999 -1.4471999 4292052569
-0.97406 -0.54092002 -1.4478 4292052569
-0.97055 -0.54086 -1.4477 4292052569
-0.96863002 -0.54168999 -1.4499 4292052569
-0.96354997 -0.54074001 -1.4473 4292052569
-0.96004999 -0.54066998 -1.4471 4292052569
-0.95708001 -0.54089999 -1.4477 4292052569
-1.0731 -0.53793001 -1.4443001 4292052569
-1.0700999 -0.53823 -1.4450999 4292052569
-1.0664999 -0.53825003 -1.4452 4292052569
-1.0646 -0.53912997 -1.4475 4292052569
-1.0611 -0.53913999 -1.4476 4292052569
-1.0558 -0.53829002 -1.4453 4292052569
-1.0528001 -0.53858 -1.4461 4292052569
-1.0503 -0.53917003 -1.4476 4292052569
-1.0473 -0.53946 -1.4484 4292052569
-1.0421 -0.53859001 -1.4461 4292052569
-1.0385 -0.53858 -1.4461 4292052569
-1.0355 -0.53886998 -1.4468 4292052569
-1.0303 -0.53798002 -1.4445 4292052569
-1.0273 -0.53825998 -1.4452 4292052569
-1.0247999 -0.53882998 -1.4467 4292052569
-1.0219001 -0.53909999 -1.4475 4292052569
-1.0194 -0.53965998 -1.449 4292052569
-1.0159 -0.53964001 -1.4489 4292052569
-1.0129 -0.53991002 -1.4496 4292052569
-1.0077 -0.53899997 -1.4471999 4292052569
-1.0041 -0.53896999 -1.4471 4292052569
-1.0001 -0.53864002 -1.4462 4292052569
-0.99545997 -0.53802001 -1.4445 4292052569
-0.99247998 -0.53827 -1.4452 4292052569
-0.99004 -0.53881001 -1.4467 4292052569
-0.98759001 -0.53935999 -1.4481 4292052569
-0.98514003 -0.5399 -1.4496 4292052569
-0.98162001 -0.53985 -1.4495 4292052569
-0.97757 -0.5395 -1.4485 4292052569
-0.97352999 -0.53915 -1.4476 4292052569
-0.97055 -0.53938001 -1.4482 4292052569
-0.96705002 -0.53931999 -1.448 4292052569
-0.96460003 -0.53985 -1.4495 4292052569
-0.96004999 -0.53918999 -1.4477 4292052569
-0.95603001 -0.53882003 -1.4467 4292052569
-1.0754 -0.53757 -1.4479001 4292052569
-1.0695 -0.53645003 -1.4449 4292052569
-1.0654 -0.53618002 -1.4442 4292052569
-1.0628999 -0.53676999 -1.4457999 4292052569
-1.0616 -0.53793001 -1.4489 4292052569
-1.0581 -0.53794003 -1.4489 4292052569
-1.0533 -0.53737003 -1.4474 4292052569
-1.0498 -0.53737003 -1.4474 4292052569
-1.0473 -0.53794998 -1.449 4292052569
-1.0448999 -0.53852999 -1.4505 4292052569
-1.0402 -0.53794998 -1.449 4292052569
-1.0361 -0.53764999 -1.4482 4292052569
-1.0325 -0.53763998 -1.4481 4292052569
-1.0295 -0.53792 -1.4489 4292052569
-1.026 -0.53790998 -1.4488 4292052569
-1.023 -0.53817999 -1.4496 4292052569
-1.0194 -0.53816003 -1.4495 4292052569
-1.0168999 -0.53872001 -1.451 4292052569
-1.0139 -0.53898001 -1.4517 4292052569
-1.0104001 -0.53895998 -1.4517 4292052569
-1.0069 -0.53893 -1.4516 4292052569
-1.0022 -0.53830999 -1.4499 4292052569
-0.99870002 -0.53827 -1.4498 4292052569
-0.99302 -0.53706002 -1.4466 4292052569
-0.99217999 -0.53847998 -1.4504 4292052569
-0.98597997 -0.53697002 -1.4463 4292052569
-0.98514003 -0.53838998 -1.4500999 4292052569
-0.98054999 -0.53775001 -1.4484 4292052569
-0.97757 -0.53798997 -1.4491 4292052569
-0.97193998 -0.53675997 -1.4457 4292052569
-0.96897 -0.53698999 -1.4464 4292052569
-0.96705002 -0.53781998 -1.4486001 4292052569
-0.96249998 -0.53715998 -1.4468 4292052569
-0.95951998 -0.53738999 -1.4474 4292052569
-0.95708001 -0.53790998 -1.4489 4292052569
-1.0766 -0.53666002 -1.45 4292052569
-1.0741 -0.53726 -1.4516 4292052569
-1.0671 -0.53556001 -1.447 4292052569
-1.0646 -0.53614998 -1.4486001 4292052569
-1.0628 -0.53702003 -1.451 4292052569
-1.0609 -0.53789002 -1.4533 4292052569
-1.0567 -0.53762001 -1.4526 4292052569
-1.0526 -0.53733999 -1.4518 4292052569
-1.049 -0.53733999 -1.4518 4292052569
-1.0454 -0.53733999 -1.4518 4292052569
-1.043 -0.53790998 -1.4534 4292052569
-1.0389 -0.53762001 -1.4526 4292052569
-1.0353 -0.53760999 -1.4526 4292052569
-1.0312001 -0.53731 -1.4518 4292052569
-1.0271 -0.53701001 -1.451 4292052569
-1.0240999 -0.53728002 -1.4517 4292052569
-1.0204999 -0.53726 -1.4516 4292052569
-1.0168999 -0.53724003 -1.4516 4292052569
-1.0134 -0.53722 -1.4515001 4292052569
-1.0104001 -0.53748 -1.4522001 4292052569
-1.0069 -0.53745002 -1.4521 4292052569
-1.0039001 -0.53771001 -1.4528 4292052569
-1.0009 -0.53795999 -1.4535 4292052569
-0.99678999 -0.53763002 -1.4526 4292052569
-0.99217999 -0.53701001 -1.4509 4292052569
-0.9892 -0.53726 -1.4516 4292052569
-0.98673999 -0.53780001 -1.4531 4292052569
-0.98109001 -0.53657001 -1.4498 4292052569
-0.97863001 -0.53710997 -1.4512 4292052569
-0.97512001 -0.53705001 -1.4511 4292052569
-0.97267002 -0.53758001 -1.4525 4292052569
-0.96968001 -0.53781998 -1.4531 4292052569
-0.96512002 -0.53715998 -1.4514 4292052569
-0.96214002 -0.53738999 -1.452 4292052569
-0.96073002 -0.53851002 -1.455 4292052569
-0.95618999 -0.53785002 -1.4532 4292052569
-1.0771 -0.53548002 -1.4513 4292052569
-1.073 -0.53522003 -1.4506 4292052569
-1.0705 -0.53580999 -1.4522001 4292052569
-1.0652 -0.53496999 -1.4499 4292052569
-1.0628 -0.53555 -1.4515001 4292052569
-1.0597 -0.53584999 -1.4523 4292052569
-1.0549999 -0.53529 -1.4507999 4292052569
-1.052 -0.53557998 -1.4516 4292052569
-1.0479 -0.53530002 -1.4507999 4292052569
-1.0448999 -0.53557998 -1.4516 4292052569
-1.0419 -0.53587002 -1.4524 4292052569
-1.0389 -0.53614998 -1.4531 4292052569
-1.0347 -0.53584999 -1.4523 4292052569
-1.0306 -0.53555 -1.4515001 4292052569
-1.0271 -0.53553998 -1.4515001 4292052569
-1.0246 -0.53609997 -1.4529999 4292052569
-1.0216 -0.53636998 -1.4536999 4292052569
-1.0175 -0.53605998 -1.4529001 4292052569
-1.0145 -0.53632998 -1.4536 4292052569
-1.0088 -0.53513998 -1.4504 4292052569
-1.0069 -0.53597999 -1.4527 4292052569
-1.0044 -0.53653002 -1.4542 4292052569
-1.0003 -0.53619999 -1.4533 4292052569
-0.99571002 -0.53557998 -1.4516 4292052569
-0.99164999 -0.53525001 -1.4507 4292052569
-0.9892 -0.53579003 -1.4522001 4292052569
-0.98514003 -0.53544998 -1.4512 4292052569
-0.98321998 -0.53627998 -1.4535 4292052569
-0.98022997 -0.53652 -1.4541 4292052569
-0.97671002 -0.53645998 -1.454 4292052569
-0.97372001 -0.53670001 -1.4546 4292052569
-0.96863002 -0.53575999 -1.4521 4292052569
-0.96512002 -0.53569001 -1.4519 4292052569
-0.96109998 -0.53533 -1.4509 4292052569
-0.95863998 -0.53584999 -1.4523 4292052569
-1.0777 -0.53432 -1.4526 4292052569
-1.0747 -0.53463 -1.4535 4292052569
-1.0721999 -0.53522003 -1.4551001 4292052569
-1.0698 -0.53579998 -1.4567 4292052569
-1.0662 -0.53582001 -1.4567 4292052569
-1.0609 -0.53498 -1.4543999 4292052569
-1.0556 -0.53412998 -1.4521 4292052569
-1.052 -0.53413999 -1.4521 4292052569
-1.0501 -0.53500003 -1.4545 4292052569
-1.0482 -0.53586 -1.4568 4292052569
-1.0434999 -0.53529 -1.4552 4292052569
-1.0389 -0.53470999 -1.4536999 4292052569
-1.0353 -0.53469998 -1.4536999 4292052569
-1.0328 -0.53526002 -1.4552 4292052569
-1.0293 -0.53525001 -1.4552 4292052569
-1.0257 -0.53523999 -1.4551001 4292052569
-1.021 -0.53464001 -1.4535 4292052569
-1.0186 -0.5352 -1.455 4292052569
-1.0161 -0.53574997 -1.4565001 4292052569
-1.0131 -0.53601003 -1.4572001 4292052569
-1.0101 -0.53627998 -1.4579 4292052569
-1.0066 -0.53625 -1.4579 4292052569
-1.0025001 -0.53592002 -1.457 4292052569
-0.99787003 -0.53530002 -1.4553 4292052569
-0.99326003 -0.53468001 -1.4536 4292052569
-0.99080002 -0.53522003 -1.4551001 4292052569
-0.98673999 -0.53487998 -1.4541 4292052569
-0.98427999 -0.53542 -1.4556 4292052569
-0.98128998 -0.53566003 -1.4563 4292052569
-0.97724003 -0.53530997 -1.4553 4292052569
-0.97425002 -0.53555 -1.456 4292052569
-0.96968001 -0.53490001 -1.4542 4292052569
-0.96565002 -0.53455001 -1.4532 4292052569
-0.96267003 -0.53478003 -1.4539 4292052569
-0.95916998 -0.53470999 -1.4536999 4292052569
-0.94905001 -0.53279001 -1.4485 4292052569
-1.08 -0.53402001 -1.4562 4292052569
-1.0757999 -0.53376001 -1.4555 4292052569
-1.0739 -0.53463 -1.4579 4292052569
-1.0709 -0.53492999 -1.4586999 4292052569
-1.0684 -0.53552002 -1.4603 4292052569
-1.0626 -0.53439999 -1.4572999 4292052569
-1.0584 -0.53412002 -1.4565001 4292052569
-1.0543 -0.53384 -1.4558001 4292052569
-1.0524 -0.53469998 -1.4581 4292052569
-1.0499001 -0.53527999 -1.4597 4292052569
-1.048 -0.53613001 -1.462 4292052569
-1.0411 -0.53442001 -1.4572999 4292052569
-1.0364 -0.53384 -1.4557 4292052569
-1.0345 -0.53469002 -1.4581 4292052569
-1.0298001 -0.5341 -1.4565001 4292052569
-1.0274 -0.53465998 -1.4579999 4292052569
-1.0243 -0.53492999 -1.4586999 4292052569
-1.0202 -0.53461999 -1.4579 4292052569
-1.0167 -0.53460002 -1.4578 4292052569
-1.0137 -0.53487003 -1.4585 4292052569
-1.0101 -0.53483999 -1.4585 4292052569
-1.0077 -0.53539002 -1.46 4292052569
-1.0046 -0.53564 -1.4607 4292052569
-1.0022 -0.53618997 -1.4621 4292052569
-0.99702001 -0.53527999 -1.4597 4292052569
-0.99186999 -0.53435999 -1.4572001 4292052569
-0.98834002 -0.53432 -1.4571 4292052569
-0.98482001 -0.53426999 -1.4569 4292052569
-0.98022997 -0.53364003 -1.4552 4292052569
-0.97776997 -0.53416997 -1.4566 4292052569
-0.97319001 -0.53353 -1.4549 4292052569
-0.97179002 -0.53464001 -1.4579 4292052569
-0.96775001 -0.53428 -1.457 4292052569
-0.96476001 -0.53451002 -1.4576 4292052569
-0.95968997 -0.53356999 -1.455 4292052569
-1.0806 -0.53276998 -1.4576 4292052569
-1.0757999 -0.53223002 -1.4561 4292052569
-1.0721999 -0.53224999 -1.4561 4292052569
-1.0686001 -0.53227001 -1.4562 4292052569
-1.0662 -0.53285003 -1.4578 4292052569
-1.0631 -0.53315002 -1.4586 4292052569
-1.0612 -0.53400999 -1.461 4292052569
-1.0554 -0.53288001 -1.4579 4292052569
-1.0529 -0.53346002 -1.4594001 4292052569
-1.0493 -0.53346002 -1.4595 4292052569
-1.0463001 -0.53373998 -1.4602 4292052569
-1.0405 -0.53259999 -1.4571 4292052569
-1.0364 -0.53231001 -1.4563 4292052569
-1.0328 -0.5323 -1.4563 4292052569
-1.0298001 -0.53257 -1.457 4292052569
-1.0252 -0.53197998 -1.4554 4292052569
-1.0238 -0.53311002 -1.4585 4292052569
-1.0213 -0.53367001 -1.46 4292052569
-1.0178 -0.53364998 -1.46 4292052569
-1.0131 -0.53305 -1.4583 4292052569
-1.0085 -0.53244001 -1.4567 4292052569
-1.0055 -0.5327 -1.4574 4292052569
-1.0019 -0.53266001 -1.4572999 4292052569
-0.99948001 -0.53320003 -1.4588 4292052569
-0.99594998 -0.53316998 -1.4586 4292052569
-0.99133998 -0.53254002 -1.4569 4292052569
-0.98834002 -0.53279001 -1.4576 4292052569
-0.98535001 -0.53302997 -1.4583 4292052569
-0.98289001 -0.53355998 -1.4597 4292052569
-0.97776997 -0.53263998 -1.4572001 4292052569
-0.97372001 -0.53228998 -1.4563 4292052569
-0.97232002 -0.5334 -1.4593 4292052569
-0.96880001 -0.53333998 -1.4591 4292052569
-0.96476001 -0.53298002 -1.4581 4292052569
-0.9623 -0.53350002 -1.4596 4292052569
-1.0822999 -0.53206003 -1.4604 4292052569
-1.0786999 -0.53207999 -1.4605 4292052569
-1.0739 -0.53153998 -1.459 4292052569
-1.0698 -0.53127998 -1.4583 4292052569
-1.0662 -0.53130001 -1.4584 4292052569
-1.0637 -0.53188002 -1.4599 4292052569
-1.0612 -0.53245002 -1.4615 4292052569
-1.0571001 -0.53218001 -1.4608001 4292052569
-1.0541 -0.53246999 -1.4615999 4292052569
-1.0505 -0.53246999 -1.4615999 4292052569
-1.0474 -0.53276002 -1.4624 4292052569
-1.0416 -0.53162003 -1.4592 4292052569
-1.0386 -0.53189999 -1.46 4292052569
-1.0355999 -0.53217 -1.4608001 4292052569
-1.0337 -0.53302002 -1.4631 4292052569
-1.029 -0.53242999 -1.4615 4292052569
-1.0254 -0.53241998 -1.4614 4292052569
-1.0219001 -0.53240001 -1.4614 4292052569
-1.0183001 -0.53237998 -1.4613 4292052569
-1.0131 -0.53149003 -1.4589 4292052569
-1.0101 -0.53175002 -1.4596 4292052569
-1.0071 -0.53201002 -1.4603 4292052569
-1.0041 -0.53226 -1.461 4292052569
-1 -0.53193998 -1.4601001 4292052569
-0.99702001 -0.53219002 -1.4608001 4292052569
-0.99348003 -0.53214997 -1.4607 4292052569
-0.98940998 -0.53180999 -1.4598 4292052569
-0.98588002 -0.53176999 -1.4596 4292052569
-0.98342001 -0.5323 -1.4611 4292052569
-0.98148 -0.53311998 -1.4633 4292052569
-0.97847998 -0.53334999 -1.464 4292052569
-0.97548002 -0.53359002 -1.4646 4292052569
-0.9709 -0.53294998 -1.4629 4292052569
-0.96634001 -0.5323 -1.4611 4292052569
-0.96335 -0.53253001 -1.4617 4292052569
-0.96087998 -0.53305 -1.4632 4292052569
-0.95684999 -0.53267998 -1.4622 4292052569
-1.084 -0.53149003 -1.4633 4292052569
-1.0781 -0.53039998 -1.4603 4292052569
-1.0745 -0.53042001 -1.4603 4292052569
-1.0703 -0.53016001 -1.4596 4292052569
-1.0678999 -0.53074002 -1.4612 4292052569
-1.0631 -0.53018999 -1.4597 4292052569
-1.0618 -0.53132999 -1.4628 4292052569
-1.0565 -0.53048998 -1.4605 4292052569
-1.0546 -0.53134 -1.4629 4292052569
-1.0505 -0.53105998 -1.4621 4292052569
-1.0474 -0.53135002 -1.4629 4292052569
-1.0439 -0.53135002 -1.4629 4292052569
-1.0397 -0.53105998 -1.4621 4292052569
-1.0367 -0.53132999 -1.4628 4292052569
-1.0342 -0.53188998 -1.4644001 4292052569
-1.0301 -0.5316 -1.4636 4292052569
-1.0271 -0.53187001 -1.4643 4292052569
-1.0235 -0.53184998 -1.4642 4292052569
-1.0204999 -0.53210998 -1.465 4292052569
-1.0153 -0.53122997 -1.4626 4292052569
-1.0112 -0.53092003 -1.4617 4292052569
-1.0082 -0.53117001 -1.4624 4292052569
-1.0036 -0.53056997 -1.4607 4292052569
-0.99895 -0.52995998 -1.459 4292052569
-0.99647999 -0.53048998 -1.4605 4292052569
-0.99401999 -0.53103 -1.462 4292052569
-0.99155003 -0.53156 -1.4635 4292052569
-0.98747998 -0.53122997 -1.4625 4292052569
-0.98395002 -0.53118002 -1.4624 4292052569
-0.98095 -0.53141999 -1.4631 4292052569
-0.97741997 -0.53135997 -1.4629 4292052569
-0.97601002 -0.53246999 -1.466 4292052569
-0.97194999 -0.53211999 -1.465 4292052569
-0.96790999 -0.53176999 -1.464 4292052569
-0.96438998 -0.53170002 -1.4639 4292052569
-0.96035999 -0.53135002 -1.4629 4292052569
-1.084 -0.53009999 -1.4638 4292052569
-1.0781 -0.52901 -1.4608001 4292052569
-1.0750999 -0.52930999 -1.4615999 4292052569
-1.072 -0.52960998 -1.4624 4292052569
-1.069 -0.52991003 -1.4632 4292052569
-1.0654 -0.52991998 -1.4633 4292052569
-1.0612 -0.52964997 -1.4625 4292052569
-1.0571001 -0.52938002 -1.4618 4292052569
-1.0535001 -0.52938998 -1.4618 4292052569
-1.0505 -0.52967 -1.4626 4292052569
-1.0491 -0.53079998 -1.4657 4292052569
-1.0466 -0.53136998 -1.4673001 4292052569
-1.0397 -0.52965999 -1.4626 4292052569
-1.0373 -0.53021997 -1.4641 4292052569
-1.0326 -0.52964997 -1.4625 4292052569
-1.0279 -0.52906001 -1.4608999 4292052569
-1.0243 -0.52904999 -1.4608999 4292052569
-1.0224 -0.52987999 -1.4632 4292052569
-1.0183001 -0.52958 -1.4622999 4292052569
-1.0148 -0.52955002 -1.4622999 4292052569
-1.0123 -0.53009999 -1.4638 4292052569
-1.0093 -0.53035003 -1.4645 4292052569
-1.0041 -0.52946001 -1.462 4292052569
-0.99895 -0.52857 -1.4595 4292052569
-0.99541003 -0.52853 -1.4594001 4292052569
-0.99348003 -0.52934998 -1.4617 4292052569
-0.99048001 -0.52959001 -1.4624 4292052569
-0.98800999 -0.53012002 -1.4638 4292052569
-0.98501003 -0.53035998 -1.4645 4292052569
