# .PCD v0.7 - Point Cloud Data file format
VERSION 0.7
FIELDS x y z rgb
SIZE 4 4 4 4
TYPE F F F U
COUNT 1 1 1 1
WIDTH 86
HEIGHT 1
VIEWPOINT 0 0 0 1 0 0 0
POINTS 86
DATA ascii
0.62252003 -0.42811999 -1.652 4279727745
0.61853999 -0.42605001 -1.651 4279727745
0.61918002 -0.42126 -1.6461999 4279727745
0.62063003 -0.42028001 -1.6424 4279727745
0.6225 -0.41951999 -1.6394 4279727745
0.62520999 -0.41920999 -1.6382 4279727745
0.62748998 -0.41867 -1.6361001 4279727745
0.63018 -0.41835001 -1.6349 4279727745
0.63203001 -0.41758999 -1.6319 4279727745
0.61308002 -0.4217 -1.6547 4279727745
0.61834002 -0.41920999 -1.6449 4279727745
0.62105 -0.41890001 -1.6437 4279727745
0.62334001 -0.41835999 -1.6416 4279727745
0.62520999 -0.41760999 -1.6386 4279727745
0.62791002 -0.41729 -1.6374 4279727745
0.62976003 -0.41653001 -1.6344 4279727745
0.63203001 -0.41600001 -1.6323 4279727745
0.63472003 -0.41567999 -1.631 4279727745
0.61686999 -0.41850999 -1.6492 4279727745
0.61834002 -0.41753 -1.6453 4279727745
0.62105 -0.41722 -1.6441 4279727745
0.62334001 -0.41668999 -1.642 4279727745
0.62605 -0.41637999 -1.6408 4279727745
0.62875998 -0.41607001 -1.6396 4279727745
0.63018 -0.41508999 -1.6357 4279727745
0.63203001 -0.41433001 -1.6327 4279727745
0.63428998 -0.4138 -1.6306 4279727745
0.61414999 -0.41710001 -1.6508 4279727745
0.61521 -0.41589999 -1.6461 4279727745
0.62063003 -0.41529 -1.6436 4279727745
0.62291998 -0.41475999 -1.6415 4279727745
0.62520999 -0.41422999 -1.6395 4279727745
0.62706 -0.41348001 -1.6365 4279727745
0.63018 -0.41339001 -1.6361001 4279727745
0.63160002 -0.41240999 -1.6323 4279727745
0.63385999 -0.41187999 -1.6301 4279727745
0.61414999 -0.41547999 -1.6512001 4279727745
0.61603999 -0.41473001 -1.6482 4279727745
0.61834002 -0.41420999 -1.6461 4279727745
0.62022001 -0.41345999 -1.6432 4279727745
0.6225 -0.41293001 -1.6411 4279727745
0.62393999 -0.41196001 -1.6372 4279727745
0.62664002 -0.41165 -1.636 4279727745
0.62932998 -0.41135001 -1.6348 4279727745
0.63073999 -0.41036999 -1.6309 4279727745
0.63257003 -0.40961999 -1.6279 4279727745
0.63654 -0.40996999 -1.6293 4279727745
0.61603999 -0.41314 -1.6486 4279727745
0.61834002 -0.41262001 -1.6465 4279727745
0.62022001 -0.41187 -1.6436 4279727745
0.62165999 -0.41091001 -1.6397001 4279727745
0.62352002 -0.41016001 -1.6367 4279727745
0.62620997 -0.40985999 -1.6355 4279727745
0.62932998 -0.40977001 -1.6352 4279727745
0.63116997 -0.40902001 -1.6322 4279727745
0.63257003 -0.40805 -1.6283 4279727745
0.63481998 -0.40752 -1.6262 4279727745
0.61479002 -0.41084999 -1.6464 4279727745
0.61853999 -0.40937001 -1.6404999 4279727745
0.62124002 -0.40906999 -1.6392 4279727745
0.62352002 -0.40854001 -1.6371 4279727745
0.62620997 -0.40823999 -1.6359 4279727745
0.62891001 -0.40792999 -1.6346999 4279727745
0.63203001 -0.40784001 -1.6343 4279727745
0.63385999 -0.40709999 -1.6313 4279727745
0.63568002 -0.40634999 -1.6284 4279727745
0.61728001 -0.40707001 -1.6382 4279727745
0.62040001 -0.40698999 -1.6379 4279727745
0.62352002 -0.40691 -1.6375 4279727745
0.62579 -0.40638 -1.6354001 4279727745
0.62891001 -0.40630001 -1.6351 4279727745
0.63073999 -0.40555999 -1.6321 4279727745
0.63300002 -0.40503001 -1.63 4279727745
0.61769998 -0.40564001 -1.6395 4279727745
0.61870998 -0.40447 -1.6348 4279727745
0.62182999 -0.40437999 -1.6344 4279727745
0.62493998 -0.4043 -1.6341 4279727745
0.62848002 -0.40443 -1.6346 4279727745
0.63116997 -0.40413001 -1.6334 4279727745
0.63257003 -0.40316999 -1.6295 4279727745
0.61956 -0.40325001 -1.6368999 4279727745
0.62225002 -0.40294999 -1.6357 4279727745
0.62409002 -0.40221 -1.6327 4279727745
0.62720001 -0.40213001 -1.6324 4279727745
0.62225002 -0.40132001 -1.6361001 4279727745
0.62323999 -0.40016001 -1.6314 4279727745
