# .PCD v0.7 - Point Cloud Data file format
VERSION 0.7
FIELDS x y z rgb
SIZE 4 4 4 4
TYPE F F F U
COUNT 1 1 1 1
WIDTH 64
HEIGHT 1
VIEWPOINT 0 0 0 1 0 0 0
POINTS 64
DATA ascii
-0.52082002 -0.67220002 -1.2131 4282178606
-0.51582998 -0.67198998 -1.2127 4282178606
-0.51301998 -0.67141998 -1.2117 4282178606
-0.51021999 -0.67085999 -1.2107 4282178606
-0.50525999 -0.67062998 -1.2103 4282178606
-0.52082002 -0.67145002 -1.2135 4282178606
-0.51832002 -0.67135 -1.2133 4282178606
-0.51270998 -0.67022997 -1.2113 4282178606
-0.51054001 -0.67058003 -1.2119 4282178606
-0.50805002 -0.67045999 -1.2117 4282178606
-0.50620002 -0.67127001 -1.2132 4282178606
-0.5205 -0.67028999 -1.2131 4282178606
-0.51207 -0.66860002 -1.21 4282178606
-0.51021999 -0.66940999 -1.2115 4282178606
-0.50867999 -0.67067999 -1.2138 4282178606
-0.50682002 -0.67148 -1.2151999 4282178606
-0.51424003 -0.66754001 -1.2098 4282178606
-0.51270998 -0.66881001 -1.2121 4282178606
-0.51054001 -0.66916001 -1.2127 4282178606
-0.50836998 -0.66951001 -1.2133 4282178606
-0.50651002 -0.67031002 -1.2148 4282178606
-0.51832002 -0.66914999 -1.2146 4282178606
-0.51397997 -0.66984999 -1.2158 4282178606
-0.51054001 -0.66837001 -1.2132 4282178606
-0.50931001 -0.67009002 -1.2163 4282178606
-0.50588 -0.66860998 -1.2136 4282178606
-0.52113998 -0.66891998 -1.216 4282178606
-0.51647002 -0.66917002 -1.2165 4282178606
-0.51428998 -0.66952002 -1.2171 4282178606
-0.51021999 -0.66712999 -1.2128 4282178606
-0.50867999 -0.66838998 -1.215 4282178606
-0.50620002 -0.66828001 -1.2148 4282178606
-0.5205 -0.66728002 -1.2147 4282178606
-0.51647002 -0.66845 -1.2169 4282178606
-0.50651002 -0.66801 -1.2161 4282178606
-0.50651002 -0.66728997 -1.2165 4282178606
-0.51085001 -0.66570997 -1.2157 4282178606
-0.50682002 -0.66684997 -1.2178 4282178606
-0.50465 -0.66719002 -1.2184 4282178606
-0.50247002 -0.66754001 -1.219 4282178606
-0.50527 -0.66719002 -1.2206 4282178606
-0.50247002 -0.66662002 -1.2194999 4282178606
-0.50059998 -0.66741002 -1.221 4282178606
-0.50682002 -0.66514999 -1.2187001 4282178606
-0.50465 -0.66549999 -1.2193 4282178606
-0.50278002 -0.66628999 -1.2208 4282178606
-0.50744998 -0.66527998 -1.2208 4282178606
-0.50527 -0.66562003 -1.2214 4282178606
-0.50309002 -0.66596001 -1.2221 4282178606
-0.50994003 -0.66448998 -1.2215 4282178606
-0.50806999 -0.66527998 -1.223 4282178606
-0.50340003 -0.66551 -1.2234 4282178606
-0.50744998 -0.66346002 -1.2218 4282178606
-0.50558001 -0.66425002 -1.2233 4282178606
-0.50309002 -0.66413999 -1.2230999 4282178606
-0.50744998 -0.66258001 -1.2223001 4282178606
-0.50620002 -0.66428 -1.2254 4282178606
-0.50401002 -0.66461998 -1.226 4282178606
-0.50713003 -0.66126001 -1.2219 4282178606
-0.50527 -0.66205001 -1.2234 4282178606
-0.50340003 -0.66284001 -1.2248 4282178606
-0.50806999 -0.66167998 -1.2249 4282178606
-0.50589001 -0.66202003 -1.2256 4282178606
-0.50651002 -0.66197997 -1.2277 4282178606
