# .PCD v0.7 - Point Cloud Data file format
VERSION 0.7
FIELDS x y z rgb
SIZE 4 4 4 4
TYPE F F F U
COUNT 1 1 1 1
WIDTH 69
HEIGHT 1
VIEWPOINT 0 0 0 1 0 0 0
POINTS 69
DATA ascii
-0.51897001 -0.66926998 -1.2167 4291739065
-0.51832002 -0.66763997 -1.2154 4291739065
-0.51460999 -0.66926003 -1.2183 4291739065
-0.51212001 -0.66914999 -1.2181 4291739065
-0.50994003 -0.66949999 -1.2187999 4291739065
-0.52210999 -0.66883999 -1.2193 4291739065
-0.51897001 -0.66782999 -1.2174 4291739065
-0.51678997 -0.66817999 -1.2181 4291739065
-0.51428998 -0.66807997 -1.2179 4291739065
-0.51148999 -0.66750997 -1.2169 4291739065
-0.50962001 -0.66832 -1.2183 4291739065
-0.52429003 -0.66758001 -1.2191 4291739065
-0.52210999 -0.66794002 -1.2198 4291739065
-0.51928997 -0.66738999 -1.2187999 4291739065
-0.51678997 -0.66728002 -1.2186 4291739065
-0.51428998 -0.66718 -1.2184 4291739065
-0.509 -0.66650999 -1.2172 4291739065
-0.52460998 -0.66711998 -1.2205 4291739065
-0.52178001 -0.66657001 -1.2194999 4291739065
-0.51960999 -0.66693002 -1.2201 4291739065
-0.51647002 -0.66591001 -1.2183 4291739065
-0.51366001 -0.66535002 -1.2172 4291739065
-0.51054001 -0.66434002 -1.2154 4291739065
-0.51024997 -0.66742003 -1.221 4291739065
-0.52460998 -0.66633999 -1.2209001 4291739065
-0.52210999 -0.66623998 -1.2207 4291739065
-0.51960999 -0.66614002 -1.2205 4291739065
-0.51678997 -0.66557997 -1.2194999 4291739065
-0.51460999 -0.66592997 -1.2201999 4291739065
-0.51148999 -0.66491997 -1.2183 4291739065
-0.50962001 -0.66571999 -1.2198 4291739065
-0.52429003 -0.66509998 -1.2205 4291739065
-0.52178001 -0.66500002 -1.2203 4291739065
-0.51928997 -0.6649 -1.2201 4291739065
-0.51678997 -0.66479999 -1.2199 4291739065
-0.51397997 -0.66424 -1.2189 4291739065
-0.51179999 -0.66459 -1.2196 4291739065
-0.50962001 -0.66492999 -1.2201999 4291739065
-0.52363998 -0.66329002 -1.2193 4291739065
-0.52113998 -0.66319001 -1.2191 4291739065
-0.51897001 -0.66355002 -1.2198 4291739065
-0.51493001 -0.66469997 -1.2219 4291739065
-0.51179999 -0.66368997 -1.22 4291739065
-0.52429003 -0.66328001 -1.2215 4291739065
-0.52146 -0.66272998 -1.2205 4291739065
-0.52089 -0.66534001 -1.2253 4291739065
-0.51525003 -0.66422999 -1.2232 4291739065
-0.51212001 -0.66321999 -1.2214 4291739065
-0.52525997 -0.66376001 -1.2244 4291739065
-0.52089 -0.66447002 -1.2258 4291739065
-0.52557999 -0.66333002 -1.2258 4291739065
-0.51993001 -0.66224003 -1.2237 4291739065
-0.52841997 -0.66294003 -1.2273 4291739065
-0.52654999 -0.66373998 -1.2288001 4291739065
-0.52436 -0.66409999 -1.2294 4291739065
-0.52873999 -0.66245002 -1.2286 4291739065
-0.52688003 -0.66325003 -1.2301 4291739065
-0.52468997 -0.66360998 -1.2308 4291739065
-0.52152997 -0.66260999 -1.2289 4291739065
-0.53191 -0.66246998 -1.2309 4291739065
-0.52776998 -0.66013998 -1.2266001 4291739065
-0.52591002 -0.66095001 -1.2280999 4291739065
-0.52340001 -0.66084999 -1.2279 4291739065
-0.52056998 -0.66030997 -1.2269 4291739065
-0.53191 -0.66150999 -1.2315 4291739065
-0.52907002 -0.66097999 -1.2305 4291739065
-0.52654999 -0.66088998 -1.2302999 4291739065
-0.53191 -0.66053998 -1.232 4291739065
-0.53509003 -0.65846002 -1.2355 4291739065
