# .PCD v0.7 - Point Cloud Data file format
VERSION 0.7
FIELDS x y z rgb
SIZE 4 4 4 4
TYPE F F F U
COUNT 1 1 1 1
WIDTH 107
HEIGHT 1
VIEWPOINT 0 0 0 1 0 0 0
POINTS 107
DATA ascii
-0.14591999 0.25676 -1.3346 4279609906
-0.148 0.25788 -1.3333 4279609906
-0.14584 0.2577 -1.3324 4279609906
-0.14796001 0.25902 -1.3321 4279609906
-0.14591999 0.25942001 -1.3341 4279609906
-0.14782999 0.25981 -1.3288 4279609906
-0.14588 0.26058999 -1.3329 4279609906
-0.14792 0.26163 -1.3305 4279609906
-0.14579999 0.26164001 -1.3306 4279609906
-0.14368001 0.26166001 -1.3307 4279609906
-0.14156 0.26166999 -1.3308001 4279609906
-0.13533001 0.26249 -1.3349 4279609906
-0.14796001 0.26317 -1.3312 4279609906
-0.14579999 0.26300001 -1.3303 4279609906
-0.14379001 0.26359999 -1.3334 4279609906
-0.1416 0.26322001 -1.3315001 4279609906
-0.13955 0.26363 -1.3335 4279609906
-0.13752 0.26422 -1.3365 4279609906
-0.13523 0.26326999 -1.3317 4279609906
-0.14787 0.26402 -1.329 4279609906
-0.14576 0.26403999 -1.3291 4279609906
-0.14376 0.26464 -1.3321 4279609906
-0.14162999 0.26464999 -1.3322001 4279609906
-0.13951001 0.26467001 -1.3322999 4279609906
-0.13744999 0.26506999 -1.3343 4279609906
-0.13523 0.26449999 -1.3315001 4279609906
-0.14787 0.26530001 -1.3288 4279609906
-0.14579999 0.26552001 -1.3298 4279609906
-0.14372 0.26572999 -1.3309 4279609906
-0.14162999 0.26594001 -1.332 4279609906
-0.13951001 0.26594999 -1.332 4279609906
-0.13739 0.26596999 -1.3321 4279609906
-0.13526 0.26598001 -1.3322001 4279609906
-0.13314 0.26598999 -1.3322001 4279609906
-0.14787 0.2667 -1.3285 4279609906
-0.14576 0.26672 -1.3286 4279609906
-0.1436 0.26653999 -1.3277 4279609906
-0.14156 0.26695001 -1.3297 4279609906
-0.13947999 0.26716 -1.3308001 4279609906
-0.13734999 0.26717001 -1.3308001 4279609906
-0.13523 0.26719001 -1.3309 4279609906
-0.13311 0.26719999 -1.331 4279609906
-0.14985999 0.26747 -1.3252 4279609906
-0.14779 0.26769 -1.3263 4279609906
-0.14572001 0.26789999 -1.3273 4279609906
-0.1436 0.26791999 -1.3274 4279609906
-0.14149 0.26794001 -1.3275 4279609906
-0.13936999 0.26795 -1.3276 4279609906
-0.13732 0.26835999 -1.3296 4279609906
-0.13523 0.26857001 -1.3306 4279609906
-0.13311 0.26857999 -1.3307 4279609906
-0.14985999 0.26883 -1.3249 4279609906
-0.14792 0.26964 -1.3289 4279609906
-0.14579999 0.26966 -1.329 4279609906
-0.14364 0.26947999 -1.3281 4279609906
-0.14149 0.26930001 -1.3272001 4279609906
-0.13936999 0.26931 -1.3273 4279609906
-0.13732 0.26971999 -1.3293 4279609906
-0.13526 0.27013001 -1.3313 4279609906
-0.14985999 0.27015999 -1.3246 4279609906
-0.14787 0.27078 -1.3277 4279609906
-0.14568 0.27039 -1.3257999 4279609906
-0.1436 0.27061 -1.3269 4279609906
-0.14149 0.27063 -1.3269 4279609906
-0.1393 0.27024001 -1.3250999 4279609906
-0.13742 0.27164999 -1.332 4279609906
-0.13517 0.27087 -1.3281 4279609906
-0.14985999 0.27144 -1.3243999 4279609906
-0.14779 0.27164999 -1.3255 4279609906
-0.14579999 0.27226999 -1.3285 4279609906
-0.14364 0.27208999 -1.3276 4279609906
-0.14156 0.27230999 -1.3286 4279609906
-0.13941 0.27212 -1.3277 4279609906
-0.13732 0.27234 -1.3288 4279609906
-0.13517 0.27215001 -1.3279001 4279609906
-0.1499 0.27292001 -1.3250999 4279609906
-0.14779 0.27294001 -1.3252 4279609906
-0.14568 0.27296001 -1.3253 4279609906
-0.14364 0.27338001 -1.3273 4279609906
-0.14156 0.27360001 -1.3284 4279609906
-0.13944 0.27361 -1.3284 4279609906
-0.13732 0.27362999 -1.3285 4279609906
-0.13519999 0.27364001 -1.3286 4279609906
-0.14775001 0.27405 -1.3239 4279609906
-0.14572001 0.27447 -1.326 4279609906
-0.1436 0.27449 -1.3261 4279609906
-0.14151999 0.27469999 -1.3271 4279609906
-0.13936999 0.27452001 -1.3262 4279609906
-0.13732 0.27494001 -1.3282 4279609906
-0.13519999 0.27495 -1.3283 4279609906
-0.14145 0.27561 -1.3249 4279609906
-0.13934 0.27563 -1.325 4279609906
-0.13725001 0.27584001 -1.326 4279609906
-0.13511001 0.27564999 -1.3250999 4279609906
-0.13936999 0.27715999 -1.3257 4279609906
-0.13729 0.27737001 -1.3267 4279609906
-0.13517 0.27739 -1.3268 4279609906
-0.13941 0.27869999 -1.3264 4279609906
-0.13734999 0.27913001 -1.3284 4279609906
-0.13519999 0.27893999 -1.3275 4279609906
-0.13725001 0.27989 -1.3252 4279609906
-0.13511001 0.27969 -1.3243001 4279609906
-0.13296001 0.27950001 -1.3233 4279609906
-0.13296001 0.28083 -1.3231 4279609906
-0.13725001 0.28248 -1.3246 4279609906
-0.13732 0.28417999 -1.3263 4279609906
-0.13514 0.28378001 -1.3243999 4279609906
