# .PCD v0.7 - Point Cloud Data file format
VERSION 0.7
FIELDS x y z rgb
SIZE 4 4 4 4
TYPE F F F U
COUNT 1 1 1 1
WIDTH 61
HEIGHT 1
VIEWPOINT 0 0 0 1 0 0 0
POINTS 61
DATA ascii
-0.20958 0.38481 -1.3493 4289492366
-0.20771 0.3793 -1.3291 4289492366
-0.20771 0.37950999 -1.329 4289492366
-0.20682 0.37696999 -1.3194 4289492366
-0.20682 0.37713999 -1.3193001 4289492366
-0.20682 0.37731001 -1.3193001 4289492366
-0.20672999 0.37717 -1.3183 4289492366
-0.21187 0.38629001 -1.3497 4289492366
-0.20682 0.37757 -1.3192 4289492366
-0.20682 0.37768 -1.3192 4289492366
-0.21387 0.39252999 -1.3707 4289492366
-0.20682 0.37777999 -1.3191 4289492366
-0.20969 0.38 -1.3266 4289492366
-0.20672999 0.37759 -1.3182 4289492366
-0.20997 0.38091001 -1.3293999 4289492366
-0.20637999 0.37658 -1.3142999 4289492366
-0.20897 0.37799001 -1.3189 4289492366
-0.2062 0.37612 -1.3124 4289492366
-0.20879 0.37751001 -1.317 4289492366
-0.2062 0.37619001 -1.3124 4289492366
-0.20942 0.37946001 -1.3236001 4289492366
-0.20629001 0.37650001 -1.3133 4289492366
-0.20915 0.37867001 -1.3207999 4289492366
-0.20602 0.3757 -1.3104 4289492366
-0.2087 0.37731999 -1.316 4289492366
-0.2062 0.37627 -1.3123 4289492366
-0.20942 0.37952 -1.3236001 4289492366
-0.20637999 0.37683001 -1.3142 4289492366
-0.20897 0.37814999 -1.3188 4289492366
-0.20629001 0.37656 -1.3133 4289492366
-0.20879 0.37761 -1.3169 4289492366
-0.2062 0.37628999 -1.3123 4289492366
-0.20888001 0.3779 -1.3178999 4289492366
-0.20629001 0.37658 -1.3133 4289492366
-0.20942 0.37955999 -1.3236001 4289492366
-0.2087 0.37735999 -1.316 4289492366
-0.20602 0.37577 -1.3104 4289492366
-0.20879 0.37764001 -1.3169 4289492366
-0.20915 0.37873 -1.3207 4289492366
-0.20611 0.37604001 -1.3114001 4289492366
-0.20656 0.37742001 -1.3161 4289492366
-0.20951 0.37983 -1.3246 4289492366
-0.20997 0.38119999 -1.3293999 4289492366
-0.20584001 0.37522 -1.3085001 4289492366
-0.20897 0.37819001 -1.3188 4289492366
-0.20906 0.37845999 -1.3198 4289492366
-0.20629001 0.37659001 -1.3133 4289492366
-0.20647 0.37713999 -1.3152 4289492366
-0.20969 0.38038 -1.3265001 4289492366
-0.2062 0.37632 -1.3123 4289492366
-0.20861 0.37709001 -1.3150001 4289492366
-0.2096 0.38011 -1.3255 4289492366
-0.20888001 0.37790999 -1.3178999 4289492366
-0.20924 0.37900999 -1.3217 4289492366
-0.20637999 0.37687001 -1.3142 4289492366
-0.20672999 0.37796 -1.3181 4289492366
-0.20682 0.37823999 -1.319 4289492366
-0.20592999 0.37549001 -1.3094 4289492366
-0.20933001 0.37928 -1.3227 4289492366
-0.20664001 0.37768999 -1.3171 4289492366
-0.20979001 0.38066 -1.3274 4289492366
