# .PCD v0.7 - Point Cloud Data file format
VERSION 0.7
FIELDS x y z rgb
SIZE 4 4 4 4
TYPE F F F U
COUNT 1 1 1 1
WIDTH 55
HEIGHT 1
VIEWPOINT 0 0 0 1 0 0 0
POINTS 55
DATA ascii
-0.74637997 -0.35218 -1.2553999 4286174322
-0.74839997 -0.35062 -1.2546999 4286174322
-0.74783999 -0.35163 -1.2582999 4286174322
-0.74839997 -0.34937 -1.2551 4286174322
-0.74637997 -0.34966999 -1.2561001 4286174322
-0.74491 -0.3477 -1.2539999 4286174322
-0.74580997 -0.34940001 -1.2601 4286174322
-0.74734998 -0.34759 -1.2585 4286174322
-0.74743003 -0.34511 -1.2544 4286174322
-0.74491 -0.34516999 -1.2546999 4286174322
-0.74726999 -0.34755999 -1.2632999 4286174322
-0.74497998 -0.3427 -1.2506 4286174322
-0.74394 -0.34345999 -1.2533 4286174322
-0.74483001 -0.34514001 -1.2595 4286174322
-0.74650002 -0.34095001 -1.249 4286174322
-0.74400002 -0.34101 -1.2492 4286174322
-0.74394 -0.34222999 -1.2537 4286174322
-0.74400002 -0.3398 -1.2495 4286174322
-0.74198997 -0.34009001 -1.2506 4286174322
-0.74338001 -0.34198999 -1.2575999 4286174322
-0.74491 -0.34018999 -1.256 4286174322
-0.74580997 -0.34186 -1.2622 4286174322
-0.74796999 -0.33785999 -1.2525001 4286174322
-0.74596 -0.33816001 -1.2536 4286174322
-0.74686998 -0.33981001 -1.2598 4286174322
-0.74198997 -0.33633 -1.2517 4286174322
-0.74656999 -0.33239001 -1.2417001 4286174322
-0.74497998 -0.3353 -1.2526 4286174322
-0.74198997 -0.33513999 -1.252 4286174322
-0.74405003 -0.33239999 -1.2467999 4286174322
-0.74155003 -0.33247 -1.247 4286174322
-0.74344999 -0.33456001 -1.2548 4286174322
-0.74057001 -0.33074 -1.2457 4286174322
-0.73856997 -0.33103001 -1.2467 4286174322
-0.74008 -0.32927001 -1.2451 4286174322
-0.73954999 -0.33023 -1.2488 4286174322
-0.75042999 -0.33151001 -1.2587 4286174322
-0.74203998 -0.32890999 -1.2489001 4286174322
-0.74295998 -0.33052999 -1.255 4286174322
-0.74726999 -0.33371001 -1.2671 4286174322
-0.74904001 -0.32727 -1.2476 4286174322
-0.74150002 -0.32864001 -1.2528 4286174322
-0.74726999 -0.33247 -1.2674 4286174322
-0.74694002 -0.32867 -1.2579 4286174322
-0.74198997 -0.32763001 -1.2539999 4286174322
-0.74256998 -0.32429001 -1.2462 4286174322
-0.74057001 -0.32457 -1.2473 4286174322
-0.73954999 -0.32404 -1.2503999 4286174322
-0.74743003 -0.32508999 -1.2598 4286174322
-0.74002999 -0.32297 -1.2516 4286174322
-0.74552 -0.32176 -1.2522 4286174322
-0.74351001 -0.32205001 -1.2533 4286174322
-0.74400002 -0.32102001 -1.2545 4286174322
-0.74155003 -0.31615001 -1.2512 4286174322
-0.73905998 -0.31621 -1.2515 4286174322
