# .PCD v0.7 - Point Cloud Data file format
VERSION 0.7
FIELDS x y z rgb
SIZE 4 4 4 4
TYPE F F F U
COUNT 1 1 1 1
WIDTH 97
HEIGHT 1
VIEWPOINT 0 0 0 1 0 0 0
POINTS 97
DATA ascii
-0.66061002 -0.68019003 -1.1992 4281228212
-0.65978003 -0.67830002 -1.1982 4281228212
-0.65935999 -0.67733997 -1.1977 4281228212
-0.65935999 -0.67680001 -1.198 4281228212
-0.66061002 -0.67760003 -1.2007 4281228212
-0.64222997 -0.67734998 -1.2002 4281228212
-0.66749001 -0.67610002 -1.1992 4281228212
-0.66193002 -0.67574 -1.1985 4281228212
-0.65978003 -0.67622 -1.1993999 4281228212
-0.64478999 -0.67684001 -1.2005 4281228212
-0.64047003 -0.67777002 -1.2021 4281228212
-0.66623002 -0.67427999 -1.1971 4281228212
-0.66408002 -0.67475998 -1.1979001 4281228212
-0.66235 -0.67569 -1.1996 4281228212
-0.65720999 -0.67576998 -1.1997 4281228212
-0.66665 -0.67413002 -1.1982 4281228212
-0.66491997 -0.67505997 -1.1998 4281228212
-0.66400999 -0.67688 -1.2031 4281228212
-0.66227001 -0.67781001 -1.2047 4281228212
-0.66009998 -0.67830002 -1.2056 4281228212
-0.65670002 -0.67743999 -1.2041 4281228212
-0.64695001 -0.67527997 -1.2002 4281228212
-0.64007002 -0.67624003 -1.2019 4281228212
-0.66534001 -0.6749 -1.201 4281228212
-0.66317999 -0.67537999 -1.2018 4281228212
-0.66018999 -0.67496997 -1.2011 4281228212
-0.65802997 -0.67545003 -1.202 4281228212
-0.65670002 -0.67682999 -1.2043999 4281228212
-0.65248001 -0.67506999 -1.2013 4281228212
-0.64910001 -0.6742 -1.1997 4281228212
-0.64478999 -0.67514002 -1.2014 4281228212
-0.64007002 -0.67562997 -1.2023 4281228212
-0.66276002 -0.67433 -1.2014 4281228212
-0.65978003 -0.67391998 -1.2007 4281228212
-0.65762001 -0.67439997 -1.2015001 4281228212
-0.64951003 -0.67404002 -1.2009 4281228212
-0.64775997 -0.67496002 -1.2025 4281228212
-0.64560002 -0.67543 -1.2034 4281228212
-0.63927001 -0.67412001 -1.201 4281228212
-0.66276002 -0.67372 -1.2017 4281228212
-0.66101998 -0.67465001 -1.2034 4281228212
-0.65329999 -0.67474997 -1.2036 4281228212
-0.65073001 -0.67477 -1.2036 4281228212
-0.64857 -0.67523998 -1.2045 4281228212
-0.64519 -0.67436999 -1.2029001 4281228212
-0.64182001 -0.6735 -1.2013 4281228212
-0.63927001 -0.67351002 -1.2014 4281228212
-0.66317999 -0.67359 -1.2029001 4281228212
-0.66018999 -0.67317998 -1.2021 4281228212
-0.65762001 -0.67321002 -1.2022001 4281228212
-0.65329999 -0.67417002 -1.2039 4281228212
-0.65154999 -0.67509001 -1.2055 4281228212
-0.64857 -0.67466003 -1.2048 4281228212
-0.64437997 -0.67290002 -1.2016 4281228212
-0.64182001 -0.67291999 -1.2017 4281228212
-0.63967001 -0.67338002 -1.2025 4281228212
-0.66061002 -0.67303997 -1.2032 4281228212
-0.65802997 -0.67308003 -1.2033 4281228212
-0.65371001 -0.67403001 -1.205 4281228212
-0.65196002 -0.67495 -1.2067 4281228212
-0.64775997 -0.67319 -1.2035 4281228212
-0.64478999 -0.67277002 -1.2028 4281228212
-0.64222997 -0.67278999 -1.2028 4281228212
-0.66018999 -0.67189002 -1.2028 4281228212
-0.65679002 -0.67104 -1.2013 4281228212
-0.65464002 -0.67150998 -1.2022001 4281228212
-0.65289003 -0.67242998 -1.2038 4281228212
-0.64991999 -0.67201 -1.2031 4281228212
-0.64775997 -0.67247999 -1.2039 4281228212
-0.64640999 -0.67383999 -1.2063 4281228212
-0.64344001 -0.67342001 -1.2056 4281228212
-0.64007002 -0.67254001 -1.204 4281228212
-0.65720999 -0.67075998 -1.2025 4281228212
-0.65546 -0.67167997 -1.2042 4281228212
-0.65248001 -0.67126 -1.2034 4281228212
-0.64991999 -0.67128998 -1.2035 4281228212
-0.64735001 -0.67131001 -1.2035 4281228212
-0.64560002 -0.67223001 -1.2051001 4281228212
-0.65628999 -0.67197001 -1.2061 4281228212
-0.65371001 -0.67199999 -1.2061 4281228212
-0.65073001 -0.67158002 -1.2054 4281228212
-0.64816999 -0.67161 -1.2054 4281228212
-0.64288002 -0.67434001 -1.2103 4281228212
-0.64898002 -0.67189997 -1.2074 4281228212
-0.65113997 -0.67070001 -1.2069 4281228212
-0.64857 -0.67072999 -1.207 4281228212
-0.64600998 -0.67075002 -1.207 4281228212
-0.64168 -0.67167997 -1.2086999 4281228212
-0.63911003 -0.67168999 -1.2086999 4281228212
-0.64816999 -0.66953999 -1.2066 4281228212
-0.64560002 -0.66956002 -1.2066 4281228212
-0.64168 -0.67093003 -1.2091 4281228212
-0.64816999 -0.66881001 -1.207 4281228212
-0.64262998 -0.66839999 -1.2063 4281228212
-0.64086998 -0.66930997 -1.2079 4281228212
-0.64262998 -0.66767001 -1.2067 4281228212
-0.64086998 -0.66786999 -1.2086999 4281228212
