# .PCD v0.7 - Point Cloud Data file format
VERSION 0.7
FIELDS x y z rgb
SIZE 4 4 4 4
TYPE F F F U
COUNT 1 1 1 1
WIDTH 76
HEIGHT 1
VIEWPOINT 0 0 0 1 0 0 0
POINTS 76
DATA ascii
0.11599 0.022538001 -1.1107 4279523884
0.10603 0.023689 -1.1138 4279523884
0.11028 0.023583001 -1.1089 4279523884
0.11515 0.023713 -1.115 4279523884
0.11706 0.023726 -1.1156 4279523884
0.11112 0.024764 -1.1127 4279523884
0.11494 0.024791 -1.114 4279523884
0.10644 0.025931999 -1.1157 4279523884
0.10773 0.025877999 -1.1134 4279523884
0.11049 0.025792999 -1.1098 4279523884
0.11282 0.025853001 -1.1124001 4279523884
0.11472 0.025867 -1.113 4279523884
0.10794 0.027000001 -1.1144 4279523884
0.1107 0.026912 -1.1107 4279523884
0.11197 0.026856 -1.1084 4279523884
0.11387 0.026869999 -1.109 4279523884
0.11577 0.026884999 -1.1095999 4279523884
0.11789 0.026923001 -1.1112 4279523884
0.10732 0.028032999 -1.1114 4279523884
0.11091 0.028039001 -1.1117001 4279523884
0.11239 0.028006 -1.1102999 4279523884
0.11387 0.027972 -1.109 4279523884
0.11577 0.027987 -1.1095999 4279523884
0.11746 0.027977999 -1.1092 4279523884
0.1067 0.029067 -1.1085 4279523884
0.10797 0.029006001 -1.1061 4279523884
0.11007 0.029048 -1.1077 4279523884
0.11197 0.029064 -1.1084 4279523884
0.11387 0.02908 -1.109 4279523884
0.11599 0.029122001 -1.1106 4279523884
0.11854 0.029214 -1.1141 4279523884
0.10711 0.030221 -1.1104 4279523884
0.10818 0.030130999 -1.1071 4279523884
0.10965 0.030095 -1.1058 4279523884
0.11155 0.030111 -1.1064 4279523884
0.11387 0.030181 -1.1089 4279523884
0.11642 0.030277001 -1.1125 4279523884
0.11854 0.03032 -1.1141 4279523884
0.096368998 0.031291999 -1.1095001 4279523884
0.10732 0.031344 -1.1113 4279523884
0.10922 0.031360999 -1.112 4279523884
0.11091 0.031351 -1.1116 4279523884
0.11239 0.031312998 -1.1102999 4279523884
0.11408 0.031303 -1.1099 4279523884
0.11534 0.031237001 -1.1076 4279523884
0.11768 0.031309001 -1.1101 4279523884
0.10481 0.03235 -1.1077 4279523884
0.1067 0.032368999 -1.1084 4279523884
0.10839 0.032357998 -1.108 4279523884
0.11028 0.032375999 -1.1086 4279523884
0.11239 0.032423001 -1.1102 4279523884
0.11408 0.032412 -1.1099 4279523884
0.11556 0.032373 -1.1085 4279523884
0.11725 0.032361999 -1.1081001 4279523884
0.10501 0.033502001 -1.1087 4279523884
0.10649 0.033461001 -1.1073999 4279523884
0.10818 0.033450998 -1.107 4279523884
0.10986 0.033440001 -1.1066 4279523884
0.11218 0.033516999 -1.1092 4279523884
0.11408 0.033535998 -1.1098 4279523884
0.11556 0.033495001 -1.1085 4279523884
0.11725 0.033484001 -1.1081001 4279523884
0.098058 0.034630001 -1.1091 4279523884
0.10272 0.034536999 -1.1061 4279523884
0.10649 0.034575999 -1.1073 4279523884
0.10818 0.034565002 -1.107 4279523884
0.10986 0.034552999 -1.1066 4279523884
0.11155 0.034542002 -1.1062 4279523884
0.11344 0.034561001 -1.1069 4279523884
0.10522 0.035757001 -1.1095999 4279523884
0.10691 0.035746001 -1.1092 4279523884
0.10859 0.035734002 -1.1089 4279523884
0.10986 0.035659999 -1.1066 4279523884
0.11134 0.035617001 -1.1052001 4279523884
0.11302 0.035604998 -1.1049 4279523884
0.11703 0.035675999 -1.1071 4279523884
