# .PCD v0.7 - Point Cloud Data file format
VERSION 0.7
FIELDS x y z rgb
SIZE 4 4 4 4
TYPE F F F U
COUNT 1 1 1 1
WIDTH 62
HEIGHT 1
VIEWPOINT 0 0 0 1 0 0 0
POINTS 62
DATA ascii
-0.18434 0.34999001 -1.284 4278476463
-0.19056 0.35126001 -1.2832 4278476463
-0.18640999 0.35134 -1.2835 4278476463
-0.18434 0.35137999 -1.2836 4278476463
-0.19064 0.35216001 -1.284 4278476463
-0.18841 0.35168001 -1.2822 4278476463
-0.18626 0.35145 -1.2814 4278476463
-0.18849 0.35246 -1.283 4278476463
-0.18634 0.35224 -1.2822 4278476463
-0.18419001 0.35202 -1.2814 4278476463
-0.18226001 0.35258999 -1.2835 4278476463
-0.18849 0.35301 -1.2829 4278476463
-0.18626 0.35253 -1.2811 4278476463
-0.18419001 0.35257 -1.2812001 4278476463
-0.18219 0.35286999 -1.2824 4278476463
-0.18841 0.35337001 -1.2817 4278476463
-0.18626 0.35314 -1.2809 4278476463
-0.18426 0.35345 -1.2819999 4278476463
-0.18219 0.35349 -1.2822 4278476463
-0.18012001 0.35352999 -1.2823 4278476463
-0.18832999 0.35371 -1.2806 4278476463
-0.18618999 0.35348001 -1.2798001 4278476463
-0.18412 0.35352001 -1.2799 4278476463
-0.18005 0.35387 -1.2812001 4278476463
-0.18634 0.35460001 -1.2816 4278476463
-0.18426 0.35464001 -1.2817 4278476463
-0.18219 0.35468 -1.2819 4278476463
-0.18849 0.35538 -1.2822 4278476463
-0.18618999 0.35462001 -1.2795 4278476463
-0.18012001 0.35527 -1.2818 4278476463
-0.18849 0.35587999 -1.2821 4278476463
-0.18640999 0.35591999 -1.2822 4278476463
-0.18212 0.35547 -1.2806 4278476463
-0.18826 0.35558 -1.2790999 4278476463
-0.18634 0.35616001 -1.2811 4278476463
-0.18412 0.35565999 -1.2794 4278476463
-0.18205 0.35569999 -1.2795 4278476463
-0.18841 0.35663 -1.2808 4278476463
-0.18634 0.35666999 -1.281 4278476463
-0.18419001 0.35644001 -1.2802 4278476463
-0.18205 0.35622001 -1.2794 4278476463
-0.18005 0.35652 -1.2805001 4278476463
-0.18855999 0.35767999 -1.2826 4278476463
-0.18634 0.35719001 -1.2808 4278476463
-0.18426 0.35723001 -1.281 4278476463
-0.18841 0.35766 -1.2805001 4278476463
-0.18626 0.35743001 -1.2797 4278476463
-0.18404 0.35694 -1.278 4278476463
-0.18841 0.35815001 -1.2804 4278476463
-0.18212 0.35800999 -1.2799 4278476463
-0.18832999 0.35831001 -1.2793 4278476463
-0.18611 0.35782 -1.2776 4278476463
-0.18419001 0.35839999 -1.2796 4278476463
-0.18019 0.35901999 -1.2818 4278476463
-0.18818 0.35819 -1.2773 4278476463
-0.18618999 0.3585 -1.2783999 4278476463
-0.18419001 0.35881001 -1.2795 4278476463
-0.18826 0.35879999 -1.2782 4278476463
-0.18618999 0.35885 -1.2783 4278476463
-0.18634 0.35980001 -1.2801 4278476463
-0.18434 0.36011001 -1.2812001 4278476463
-0.18626 0.36025 -1.2789 4278476463
