# .PCD v0.7 - Point Cloud Data file format
VERSION 0.7
FIELDS x y z rgb
SIZE 4 4 4 4
TYPE F F F U
COUNT 1 1 1 1
WIDTH 97
HEIGHT 1
VIEWPOINT 0 0 0 1 0 0 0
POINTS 97
DATA ascii
-0.55075997 -0.68141001 -1.1945 4290806883
-0.55075997 -0.68101001 -1.1948 4290806883
-0.55145001 -0.68031001 -1.1973 4290806883
-0.54474002 -0.67783999 -1.193 4290806883
-0.54543 -0.67834997 -1.1949 4290806883
-0.54610997 -0.67831999 -1.197 4290806883
-0.54895002 -0.67834997 -1.1983 4290806883
-0.54610997 -0.67781001 -1.1973 4290806883
-0.54497999 -0.67957997 -1.2005 4290806883
-0.55395001 -0.67798001 -1.1988 4290806883
-0.54791999 -0.67645001 -1.1961 4290806883
-0.54145998 -0.67760003 -1.1982 4290806883
-0.55075997 -0.67645001 -1.1974 4290806883
-0.54758 -0.67545003 -1.1956 4290806883
-0.54610997 -0.67676002 -1.1979001 4290806883
-0.55075997 -0.67591 -1.1977 4290806883
-0.54610997 -0.67622 -1.1982 4290806883
-0.54328001 -0.67567998 -1.1973 4290806883
-0.55465001 -0.67733002 -1.2013 4290806883
-0.55180001 -0.67680001 -1.2004 4290806883
-0.54929 -0.67672998 -1.2003 4290806883
-0.54247999 -0.67742002 -1.2015001 4290806883
-0.55465001 -0.67684001 -1.2016 4290806883
-0.55214 -0.67676997 -1.2015001 4290806883
-0.54929 -0.67624003 -1.2006 4290806883
-0.54430002 -0.67609 -1.2003 4290806883
-0.55145001 -0.67524999 -1.2002 4290806883
-0.54929 -0.67563999 -1.2009 4290806883
-0.55145001 -0.67465001 -1.2005 4290806883
-0.54929 -0.67502999 -1.2012 4290806883
-0.54430002 -0.67488003 -1.201 4290806883
-0.55430001 -0.67457002 -1.2018 4290806883
-0.55145001 -0.67404002 -1.2009 4290806883
-0.54929 -0.67443001 -1.2016 4290806883
-0.54361999 -0.67334998 -1.1997 4290806883
-0.54180002 -0.6742 -1.2012 4290806883
-0.55533999 -0.67534 -1.2046 4290806883
-0.55180001 -0.67388999 -1.202 4290806883
-0.54964 -0.67427999 -1.2027 4290806883
-0.54747999 -0.67466003 -1.2034 4290806883
-0.53964001 -0.67396998 -1.2022001 4290806883
-0.55465001 -0.67383999 -1.2033 4290806883
-0.55180001 -0.67330998 -1.2024 4290806883
-0.54997998 -0.67416 -1.2039 4290806883
-0.55465001 -0.67325997 -1.2036 4290806883
-0.54860997 -0.67174 -1.2009 4290806883
-0.55533999 -0.67346001 -1.2057 4290806883
-0.55249 -0.67294002 -1.2047 4290806883
-0.54997998 -0.67286998 -1.2046 4290806883
-0.54714 -0.67233998 -1.2036 4290806883
-0.55533999 -0.67273998 -1.2061 4290806883
-0.55317998 -0.67312998 -1.2068 4290806883
-0.55101001 -0.67352003 -1.2075 4290806883
-0.54816002 -0.67299002 -1.2065001 4290806883
-0.55533999 -0.67214 -1.2064 4290806883
-0.55317998 -0.67253 -1.2071 4290806883
-0.55067003 -0.67246002 -1.207 4290806883
-0.54816002 -0.67238998 -1.2068 4290806883
-0.546 -0.67277002 -1.2075 4290806883
-0.54316002 -0.67224002 -1.2066 4290806883
-0.55136001 -0.67277998 -1.2089 4290806883
-0.54851002 -0.67224997 -1.2079999 4290806883
-0.546 -0.67216998 -1.2079 4290806883
-0.542 -0.67338997 -1.21 4290806883
-0.53983003 -0.67377001 -1.2107 4290806883
-0.55067003 -0.67114002 -1.2077 4290806883
-0.54816002 -0.67106003 -1.2076 4290806883
-0.54497999 -0.67006999 -1.2058001 4290806883
-0.54316002 -0.67091 -1.2072999 4290806883
-0.54167002 -0.67220002 -1.2096 4290806883
-0.55067003 -0.67039001 -1.2081 4290806883
-0.54747999 -0.66940999 -1.2063 4290806883
-0.54464 -0.66887999 -1.2054 4290806883
-0.54247999 -0.66926003 -1.2061 4290806883
-0.55238998 -0.67193002 -1.2126 4290806883
-0.54633999 -0.67041999 -1.2099 4290806883
-0.54167002 -0.67071998 -1.2105 4290806883
-0.54667997 -0.67014003 -1.2111 4290806883
-0.54451001 -0.67052001 -1.2118 4290806883
-0.54268003 -0.67135 -1.2133 4290806883
-0.55101001 -0.66867 -1.2102 4290806883
-0.54918998 -0.66949999 -1.2117 4290806883
-0.54667997 -0.66943002 -1.2115 4290806883
-0.54518998 -0.67071998 -1.2139 4290806883
-0.54233998 -0.67018002 -1.2129 4290806883
-0.55136001 -0.66841 -1.2114 4290806883
-0.54987001 -0.66970003 -1.2137001 4290806883
-0.54633999 -0.66826999 -1.2111 4290806883
-0.54484999 -0.66955 -1.2134 4290806883
-0.54233998 -0.66948003 -1.2133 4290806883
-0.55203998 -0.66852999 -1.2134 4290806883
-0.55022001 -0.66937 -1.215 4290806883
-0.54803997 -0.66974998 -1.2157 4290806883
-0.54553002 -0.66966999 -1.2155 4290806883
-0.54268003 -0.66913998 -1.2145 4290806883
-0.54838002 -0.66940999 -1.2169 4290806883
-0.54518998 -0.66842997 -1.2151 4290806883
