# .PCD v0.7 - Point Cloud Data file format
VERSION 0.7
FIELDS x y z rgb
SIZE 4 4 4 4
TYPE F F F U
COUNT 1 1 1 1
WIDTH 505
HEIGHT 1
VIEWPOINT 0 0 0 1 0 0 0
POINTS 505
DATA ascii
-0.19193999 0.21532001 -1.3585 4280181010
-0.19425 0.21691 -1.3601 4280181010
-0.19209 0.21694 -1.3602 4280181010
-0.18979 0.21664999 -1.3584 4280181010
-0.18777999 0.21698999 -1.3605 4280181010
-0.18555 0.21686 -1.3597 4280181010
-0.16835999 0.21719 -1.3618 4280181010
-0.16410001 0.21738 -1.363 4280181010
-0.19186001 0.21798 -1.357 4280181010
-0.18971001 0.21800999 -1.3572 4280181010
-0.18756001 0.21803001 -1.3573 4280181010
-0.18534 0.21789999 -1.3565 4280181010
-0.18319 0.21792001 -1.3566999 4280181010
-0.18097 0.21778999 -1.3558 4280181010
-0.17230999 0.21772 -1.3554 4280181010
-0.17034 0.21821 -1.3585 4280181010
-0.16801 0.21776 -1.3556 4280181010
-0.16592 0.21793 -1.3568 4280181010
-0.16377001 0.21795 -1.3569 4280181010
-0.15737 0.21816 -1.3582 4280181010
-0.15521 0.21818 -1.3583 4280181010
-0.15306 0.2182 -1.3584 4280181010
-0.15091 0.21821 -1.3585 4280181010
-0.19163001 0.21878999 -1.3539 4280181010
-0.18734001 0.21885 -1.3542 4280181010
-0.18512 0.21871001 -1.3534 4280181010
-0.18305001 0.21889 -1.3545001 4280181010
-0.17889 0.21926001 -1.3566999 4280181010
-0.17660999 0.21896 -1.3549 4280181010
-0.17457999 0.2193 -1.357 4280181010
-0.17242999 0.21933 -1.3572 4280181010
-0.17027999 0.21935 -1.3573 4280181010
-0.16801 0.21905001 -1.3554 4280181010
-0.16587 0.21907 -1.3556 4280181010
-0.16366 0.21893001 -1.3547 4280181010
-0.16152 0.21894 -1.3548 4280181010
-0.15932 0.21879999 -1.3539 4280181010
-0.15717 0.21882001 -1.354 4280181010
-0.15507001 0.219 -1.3551 4280181010
-0.14875001 0.21952 -1.3584 4280181010
-0.14664 0.21969 -1.3594 4280181010
-0.19163001 0.21997 -1.3537 4280181010
-0.18941 0.21983001 -1.3529 4280181010
-0.18741 0.22018 -1.355 4280181010
-0.18534 0.22036 -1.3561 4280181010
-0.18312 0.22023 -1.3552999 4280181010
-0.18097 0.22025 -1.3554 4280181010
-0.17882 0.22028001 -1.3556 4280181010
-0.17674001 0.22046 -1.3566999 4280181010
-0.17433 0.21984001 -1.3529 4280181010
-0.17230999 0.22018 -1.355 4280181010
-0.17016 0.2202 -1.3551 4280181010
-0.16807 0.22037999 -1.3562 4280181010
-0.16581 0.22008 -1.3544 4280181010
-0.16372 0.22025999 -1.3555 4280181010
-0.16152 0.22012 -1.3546 4280181010
-0.15942 0.2203 -1.3557 4280181010
-0.15712 0.21983001 -1.3529 4280181010
-0.15507001 0.22017001 -1.3549 4280181010
-0.15283 0.21987 -1.3530999 4280181010
-0.15078001 0.2202 -1.3551 4280181010
-0.14862999 0.22022 -1.3552001 4280181010
-0.14652 0.22039001 -1.3563 4280181010
-0.13785 0.22012 -1.3546 4280181010
-0.1937 0.22112 -1.3523 4280181010
-0.19171 0.22146 -1.3544 4280181010
-0.18964 0.22165 -1.3556 4280181010
-0.18749 0.22168 -1.3557 4280181010
-0.18534 0.2217 -1.3559 4280181010
-0.18312 0.22157 -1.3551 4280181010
-0.18097 0.22159 -1.3552001 4280181010
-0.17874999 0.22145 -1.3544 4280181010
-0.17654 0.22131 -1.3535 4280181010
-0.17421 0.22085001 -1.3507 4280181010
-0.17219 0.2212 -1.3528 4280181010
-0.1701 0.22138 -1.3539 4280181010
-0.1679 0.22124 -1.3530999 4280181010
-0.16581 0.22142 -1.3542 4280181010
-0.16372 0.2216 -1.3552999 4280181010
-0.16157 0.22161999 -1.3554 4280181010
-0.15932 0.22131 -1.3535 4280181010
-0.15712 0.22116999 -1.3526 4280181010
-0.15503 0.22135 -1.3537 4280181010
-0.15288 0.22136 -1.3538001 4280181010
-0.15069 0.22122 -1.3529 4280181010
-0.14859 0.22138999 -1.354 4280181010
-0.14656 0.22189 -1.3571 4280181010
-0.19362 0.22245 -1.3511 4280181010
-0.19156 0.22263999 -1.3522 4280181010
-0.18934 0.2225 -1.3514 4280181010
-0.18719 0.22253001 -1.3516001 4280181010
-0.18512 0.22272 -1.3527 4280181010
-0.18284 0.22242001 -1.3509001 4280181010
-0.18083 0.22276001 -1.353 4280181010
-0.17862 0.22262999 -1.3522 4280181010
-0.17654 0.22281 -1.3533 4280181010
-0.1744 0.22283 -1.3534 4280181010
-0.17219 0.22269 -1.3526 4280181010
-0.16998 0.22255 -1.3516999 4280181010
-0.16784 0.22257 -1.3518 4280181010
-0.1657 0.22259 -1.3519 4280181010
-0.16361 0.22277001 -1.3530999 4280181010
-0.16136 0.22247 -1.3512 4280181010
-0.15922 0.22248 -1.3513 4280181010
-0.15707 0.2225 -1.3514 4280181010
-0.15498 0.22268 -1.3525 4280181010
-0.15288 0.22285999 -1.3536 4280181010
-0.15073 0.22288001 -1.3537 4280181010
-0.14862999 0.22305 -1.3547 4280181010
-0.14652 0.22323 -1.3558 4280181010
-0.13792001 0.22328 -1.3561 4280181010
-0.19346 0.22339 -1.3489 4280181010
-0.19140001 0.22358 -1.3501 4280181010
-0.18919 0.22344001 -1.3492 4280181010
-0.18712001 0.22363 -1.3504 4280181010
-0.18498001 0.22364999 -1.3505 4280181010
-0.18291 0.22384 -1.3516999 4280181010
-0.18063 0.22353999 -1.3498 4280181010
-0.17849 0.22356001 -1.35 4280181010
-0.17641 0.22375 -1.3511 4280181010
-0.17433 0.22394 -1.3522 4280181010
-0.17219 0.22396 -1.3523999 4280181010
-0.16998 0.22382 -1.3515 4280181010
-0.16784 0.22384 -1.3516001 4280181010
-0.16564 0.22369 -1.3508 4280181010
-0.16355 0.22386999 -1.3519 4280181010
-0.16131 0.22357 -1.35 4280181010
-0.15917 0.22359 -1.3501 4280181010
-0.15697999 0.22344001 -1.3492 4280181010
-0.15484001 0.22346 -1.3493 4280181010
-0.15069 0.22397999 -1.3525 4280181010
-0.14862999 0.22431999 -1.3545001 4280181010
-0.14644 0.22417 -1.3536 4280181010
-0.14 0.22420999 -1.3539 4280181010
-0.13778999 0.22390001 -1.352 4280181010
-0.19148 0.22510999 -1.3508 4280181010
-0.18919 0.22481 -1.349 4280181010
-0.18712001 0.22499999 -1.3501 4280181010
-0.18483999 0.2247 -1.3483 4280181010
-0.18291 0.22521 -1.3514 4280181010
-0.18055999 0.22475 -1.3486 4280181010
-0.17842001 0.22476999 -1.3487999 4280181010
-0.17628001 0.22479001 -1.3489 4280181010
-0.17402001 0.22449 -1.3471 4280181010
-0.17213 0.22516 -1.3511 4280181010
-0.16975001 0.22453 -1.3473001 4280181010
-0.16784 0.22521 -1.3514 4280181010
-0.16559 0.22490001 -1.3494999 4280181010
-0.16355 0.22525001 -1.3516001 4280181010
-0.16131 0.22494 -1.3498 4280181010
-0.15917 0.22495 -1.3499 4280181010
-0.15703 0.22497 -1.35 4280181010
-0.15484001 0.22482 -1.3491 4280181010
-0.15069 0.22535001 -1.3522 4280181010
-0.14854001 0.22536001 -1.3523 4280181010
-0.1464 0.22538 -1.3523999 4280181010
-0.13996001 0.22542 -1.3527 4280181010
-0.19163001 0.22676 -1.3526 4280181010
-0.18941 0.22662 -1.3516999 4280181010
-0.18734001 0.22680999 -1.3529 4280181010
-0.18483999 0.22600999 -1.3480999 4280181010
-0.18284 0.22637001 -1.3502001 4280181010
-0.18055999 0.22606 -1.3484 4280181010
-0.17836 0.22592001 -1.3476 4280181010
-0.17622 0.22594 -1.3477 4280181010
-0.17396 0.22564 -1.3459001 4280181010
-0.17213 0.22648001 -1.3509001 4280181010
-0.16981 0.22600999 -1.3480999 4280181010
-0.16784 0.22653 -1.3512 4280181010
-0.16564 0.22638001 -1.3503 4280181010
-0.16361 0.22673 -1.3523999 4280181010
-0.16136 0.22642 -1.3505 4280181010
-0.15927 0.22660001 -1.3516001 4280181010
-0.15712 0.22662 -1.3516999 4280181010
-0.15488 0.22631 -1.3499 4280181010
-0.15279 0.22649001 -1.3509001 4280181010
-0.1506 0.22634 -1.3501 4280181010
-0.14854001 0.22668 -1.3521 4280181010
-0.14636 0.22653 -1.3512 4280181010
-0.14421999 0.22655 -1.3513 4280181010
-0.14204 0.2264 -1.3504 4280181010
-0.13992999 0.22657 -1.3515 4280181010
-0.13775 0.22642 -1.3505 4280181010
-0.18911 0.22731 -1.3476 4280181010
-0.18712001 0.22767 -1.3497 4280181010
-0.18477 0.2272 -1.3469 4280181010
-0.18277 0.22756 -1.349 4280181010
-0.18042 0.22708 -1.3462 4280181010
-0.17836 0.22727001 -1.3473001 4280181010
-0.17609 0.22696 -1.3455 4280181010
-0.17402001 0.22714999 -1.3466001 4280181010
-0.17201 0.22751001 -1.3487 4280181010
-0.16981 0.22736 -1.3479 4280181010
-0.16773 0.22755 -1.349 4280181010
-0.16553 0.2274 -1.3480999 4280181010
-0.16345 0.22758999 -1.3492 4280181010
-0.16114999 0.22711 -1.3464 4280181010
-0.15922 0.22779 -1.3504 4280181010
-0.15703 0.22764 -1.3494999 4280181010
-0.15484001 0.22750001 -1.3487 4280181010
-0.15270001 0.22751001 -1.3487999 4280181010
-0.15056001 0.22753 -1.3487999 4280181010
-0.1485 0.22788 -1.3509001 4280181010
-0.14632 0.22772001 -1.35 4280181010
-0.14425001 0.22807001 -1.3521 4280181010
-0.142 0.22758 -1.3492 4280181010
-0.13992999 0.22792999 -1.3512 4280181010
-0.13775 0.22778 -1.3503 4280181010
-0.19125 0.22871999 -1.3472 4280181010
-0.18904001 0.22858 -1.3463 4280181010
-0.18705 0.22894 -1.3485 4280181010
-0.18491 0.22897001 -1.3486 4280181010
-0.18284 0.22916 -1.3498 4280181010
-0.18055999 0.22885001 -1.3479 4280181010
-0.17828999 0.22854 -1.3461 4280181010
-0.17614999 0.22857 -1.3462 4280181010
-0.17408 0.22876 -1.3474 4280181010
-0.17194 0.22878 -1.3475 4280181010
-0.16975001 0.22863001 -1.3466001 4280181010
-0.16755 0.22849 -1.3458 4280181010
-0.16536 0.22834 -1.3449 4280181010
-0.16339 0.22886001 -1.348 4280181010
-0.16131 0.22905 -1.3491 4280181010
-0.15917 0.22905999 -1.3492 4280181010
-0.15693 0.22875001 -1.3473001 4280181010
-0.15474001 0.2286 -1.3464 4280181010
-0.15270001 0.22894999 -1.3485 4280181010
-0.15056001 0.22896001 -1.3486 4280181010
-0.14846 0.22915 -1.3497 4280181010
-0.14632 0.22916 -1.3498 4280181010
-0.14418 0.22917999 -1.3498 4280181010
-0.142 0.22902 -1.3489 4280181010
-0.13989 0.22920001 -1.35 4280181010
-0.13778999 0.22938 -1.3511 4280181010
-0.19140001 0.23040999 -1.3489 4280181010
-0.18911 0.23010001 -1.3471 4280181010
-0.18683 0.22979 -1.3453 4280181010
-0.18477 0.22999001 -1.3464 4280181010
-0.18263 0.23001 -1.3466001 4280181010
-0.18049 0.23004 -1.3467 4280181010
-0.17816 0.22956 -1.3439 4280181010
-0.17609 0.22975001 -1.345 4280181010
-0.17396 0.22977 -1.3451999 4280181010
-0.17201 0.23029999 -1.3482 4280181010
-0.16963001 0.22965001 -1.3444 4280181010
-0.16755 0.22984 -1.3455 4280181010
-0.16536 0.22969 -1.3447 4280181010
-0.16334 0.23005 -1.3468 4280181010
-0.1612 0.23006999 -1.3469 4280181010
-0.15906 0.23007999 -1.347 4280181010
-0.15693 0.23010001 -1.3471 4280181010
-0.15474001 0.22995 -1.3462 4280181010
-0.15270001 0.23029999 -1.3483 4280181010
-0.15047 0.22998001 -1.3464 4280181010
-0.14846 0.2305 -1.3494 4280181010
-0.14624 0.23018 -1.3476 4280181010
-0.14418 0.23052999 -1.3496 4280181010
-0.142 0.23038 -1.3487 4280181010
-0.13996001 0.2309 -1.3516999 4280181010
-0.13789 0.23125 -1.3538001 4280181010
-0.1911 0.23097 -1.3448 4280181010
-0.18904001 0.23117 -1.3459001 4280181010
-0.18683 0.23102 -1.3451 4280181010
-0.18483999 0.23139 -1.3472 4280181010
-0.18269999 0.23141 -1.3473001 4280181010
-0.18055999 0.23143999 -1.3475 4280181010
-0.17822 0.23096 -1.3447 4280181010
-0.17614999 0.23115 -1.3458 4280181010
-0.17402001 0.23117 -1.3459001 4280181010
-0.17188001 0.23119999 -1.3461 4280181010
-0.16969 0.23105 -1.3451999 4280181010
-0.1675 0.2309 -1.3444 4280181010
-0.16542 0.23108999 -1.3455 4280181010
-0.16328 0.23111001 -1.3456 4280181010
-0.16125 0.23147 -1.3477 4280181010
-0.15900999 0.23115 -1.3458 4280181010
-0.15693 0.23133001 -1.3469 4280181010
-0.15479 0.23135 -1.347 4280181010
-0.15261 0.23119999 -1.3461 4280181010
-0.15047 0.23122001 -1.3462 4280181010
-0.14834 0.23123001 -1.3463 4280181010
-0.14624 0.23142 -1.3474 4280181010
-0.14414001 0.2316 -1.3484 4280181010
-0.142 0.23161 -1.3485 4280181010
-0.13989 0.23179001 -1.3496 4280181010
-0.13778999 0.23198 -1.3506 4280181010
-0.19117001 0.23243 -1.3455 4280181010
-0.18896 0.23228 -1.3447 4280181010
-0.18705 0.23282 -1.3478 4280181010
-0.18498001 0.23301999 -1.3489 4280181010
-0.18277 0.23287 -1.3480999 4280181010
-0.18049 0.23255999 -1.3463 4280181010
-0.17809001 0.23190001 -1.3425 4280181010
-0.17603 0.2321 -1.3436 4280181010
-0.17383 0.23195 -1.3428 4280181010
-0.17175999 0.23214 -1.3439 4280181010
-0.16963001 0.23216 -1.344 4280181010
-0.16755 0.23236001 -1.3451 4280181010
-0.16542 0.23238 -1.3451999 4280181010
-0.16328 0.2324 -1.3454 4280181010
-0.1612 0.23259 -1.3464 4280181010
-0.15891001 0.23209 -1.3436 4280181010
-0.15673 0.23194 -1.3427 4280181010
-0.15474001 0.23247001 -1.3458 4280181010
-0.15265 0.23266 -1.3469 4280181010
-0.15052 0.23266999 -1.347 4280181010
-0.14834 0.23252 -1.3461 4280181010
-0.1462 0.23253 -1.3461 4280181010
-0.1441 0.23272 -1.3472 4280181010
-0.14204 0.23307 -1.3493 4280181010
-0.13981999 0.23274 -1.3474 4280181010
-0.13768999 0.23276 -1.3474 4280181010
-0.13552 0.2326 -1.3465 4280181010
-0.19102 0.2335 -1.3433 4280181010
-0.18889 0.23353 -1.3435 4280181010
-0.18674999 0.23355 -1.3436 4280181010
-0.18455 0.23341 -1.3428 4280181010
-0.18234999 0.23327 -1.342 4280181010
-0.18029 0.23345999 -1.3431 4280181010
-0.17816 0.23349001 -1.3432 4280181010
-0.17603 0.23351 -1.3434 4280181010
-0.17383 0.23336001 -1.3425 4280181010
-0.1717 0.23338 -1.3427 4280181010
-0.16957 0.23341 -1.3428 4280181010
-0.1675 0.23360001 -1.3439 4280181010
-0.16542 0.23379 -1.345 4280181010
-0.16323 0.23364 -1.3441 4280181010
-0.1611 0.23366 -1.3442 4280181010
-0.15886 0.23334 -1.3424 4280181010
-0.15673 0.23334999 -1.3425 4280181010
-0.15459999 0.23337001 -1.3426 4280181010
-0.15256 0.23373 -1.3446 4280181010
-0.15052 0.23409 -1.3467 4280181010
-0.14828999 0.23376 -1.3448 4280181010
-0.14616001 0.23378 -1.3449 4280181010
-0.14418 0.23447999 -1.3489 4280181010
-0.14204 0.23449001 -1.349 4280181010
-0.13989 0.23450001 -1.3491 4280181010
-0.13555001 0.23419 -1.3473001 4280181010
-0.1911 0.23504999 -1.3441 4280181010
-0.18889 0.23491 -1.3432 4280181010
-0.18668 0.23476 -1.3424 4280181010
-0.18461999 0.23496 -1.3435 4280181010
-0.18249001 0.23499 -1.3437001 4280181010
-0.18029 0.23484001 -1.3429 4280181010
-0.17809001 0.23469 -1.342 4280181010
-0.17377 0.23457 -1.3413 4280181010
-0.17163999 0.23458999 -1.3414 4280181010
-0.16957 0.23479 -1.3425 4280181010
-0.16744 0.23480999 -1.3427 4280181010
-0.16531 0.23483001 -1.3428 4280181010
-0.16301 0.23433 -1.3399 4280181010
-0.16089 0.23435 -1.3401 4280181010
-0.15881 0.23454 -1.3412 4280181010
-0.15673 0.23473001 -1.3422 4280181010
-0.15459999 0.23475 -1.3423001 4280181010
-0.15246999 0.23477 -1.3424 4280181010
-0.15047 0.2353 -1.3455 4280181010
-0.14838 0.23548999 -1.3466001 4280181010
-0.1462 0.23533 -1.3457 4280181010
-0.1441 0.23552001 -1.3467 4280181010
-0.142 0.2357 -1.3478 4280181010
-0.13986 0.23571999 -1.3479 4280181010
-0.13772 0.23573001 -1.3479 4280181010
-0.13558 0.23574001 -1.348 4280181010
-0.19117001 0.23655 -1.3448 4280181010
-0.18674999 0.23626 -1.3432 4280181010
-0.18455 0.23612 -1.3423001 4280181010
-0.18242 0.23614 -1.3425 4280181010
-0.18029 0.23616999 -1.3426 4280181010
-0.17377 0.2359 -1.3411 4280181010
-0.1717 0.23609 -1.3422 4280181010
-0.16951001 0.23593999 -1.3413 4280181010
-0.1675 0.23631001 -1.3434 4280181010
-0.1652 0.23581 -1.3406 4280181010
-0.16306999 0.23582999 -1.3407 4280181010
-0.16094001 0.23585001 -1.3408 4280181010
-0.15243 0.23592 -1.3412 4280181010
-0.15038 0.23627999 -1.3433 4280181010
-0.14842001 0.23699 -1.3473001 4280181010
-0.14616001 0.23649 -1.3444 4280181010
-0.1441 0.23684999 -1.3465 4280181010
-0.142 0.23704 -1.3476 4280181010
-0.13986 0.23705 -1.3476 4280181010
-0.13762 0.23654 -1.3448 4280181010
-0.13552 0.23672999 -1.3458 4280181010
-0.19117001 0.23789001 -1.3446 4280181010
-0.18889 0.23757 -1.3428 4280181010
-0.17364 0.23688 -1.3389 4280181010
-0.17158 0.23707999 -1.34 4280181010
-0.16945 0.23710001 -1.3401 4280181010
-0.16738001 0.23729999 -1.3412 4280181010
-0.16525 0.23732001 -1.3413 4280181010
-0.16312 0.23734 -1.3414 4280181010
-0.15246999 0.23743001 -1.342 4280181010
-0.15025 0.23710001 -1.3401 4280181010
-0.14828999 0.23781 -1.3441 4280181010
-0.14612 0.23765001 -1.3432 4280181010
-0.14399 0.23767 -1.3433 4280181010
-0.14184999 0.23768 -1.3434 4280181010
-0.13971999 0.2377 -1.3435 4280181010
-0.13548 0.23789001 -1.3446 4280181010
-0.19117001 0.23925 -1.3443 4280181010
-0.18904001 0.23928 -1.3444999 4280181010
-0.18697 0.23949 -1.3456 4280181010
-0.17358001 0.23806 -1.3376 4280181010
-0.17163999 0.23861 -1.3407 4280181010
-0.16938999 0.23829 -1.3389 4280181010
-0.16738001 0.23865999 -1.341 4280181010
-0.16525 0.23868001 -1.3411 4280181010
-0.16306999 0.23852 -1.3401999 4280181010
-0.15252 0.23897 -1.3427 4280181010
-0.1503 0.23863 -1.3408 4280181010
-0.14828999 0.23917 -1.3439 4280181010
-0.14612 0.23901001 -1.3430001 4280181010
-0.14406 0.23938 -1.345 4280181010
-0.14184999 0.23904 -1.3431 4280181010
-0.13979 0.23941 -1.3451999 4280181010
-0.13759001 0.23907 -1.3433 4280181010
-0.13545001 0.23908 -1.3434 4280181010
-0.19093999 0.24008 -1.3411 4280181010
-0.18881001 0.24011 -1.3413 4280181010
-0.18668 0.24013001 -1.3415 4280181010
-0.17396 0.24045999 -1.3433 4280181010
-0.17182 0.24049 -1.3434 4280181010
-0.16963001 0.24033 -1.3426 4280181010
-0.16727 0.23965 -1.3388 4280181010
-0.1652 0.23985 -1.3399 4280181010
-0.16301 0.23969001 -1.339 4280181010
-0.15034001 0.24016 -1.3415999 4280181010
-0.14821 0.24017 -1.3417 4280181010
-0.1462 0.24072 -1.3447 4280181010
-0.14406 0.24073 -1.3448 4280181010
-0.14189 0.24056999 -1.3439 4280181010
-0.13975 0.24058001 -1.344 4280181010
-0.13755 0.24023999 -1.3421 4280181010
-0.13548 0.24061 -1.3441 4280181010
-0.19087 0.24122 -1.3399 4280181010
-0.18889 0.24161001 -1.342 4280181010
-0.18661 0.24128 -1.3401999 4280181010
-0.17139 0.24056999 -1.3363 4280181010
-0.16926999 0.2406 -1.3364 4280181010
-0.16715001 0.24062 -1.3365999 4280181010
-0.16514 0.24099 -1.3386 4280181010
-0.1503 0.2413 -1.3404 4280181010
-0.14821 0.24150001 -1.3414 4280181010
-0.14608 0.24151 -1.3415 4280181010
-0.14399 0.24169999 -1.3426 4280181010
-0.14184999 0.24172001 -1.3427 4280181010
-0.13975 0.24191 -1.3437001 4280181010
-0.13765 0.2421 -1.3448 4280181010
-0.13552 0.24211 -1.3448 4280181010
-0.19087 0.24255 -1.3397 4280181010
-0.18866 0.24240001 -1.3389 4280181010
-0.18661 0.24260999 -1.34 4280181010
-0.18448 0.24264 -1.3401 4280181010
-0.17158 0.24243 -1.339 4280181010
-0.16933 0.2421 -1.3372 4280181010
-0.16721 0.24212 -1.3372999 4280181010
-0.16503 0.24196 -1.3364 4280181010
-0.15025 0.24245 -1.3391 4280181010
-0.14821 0.24281999 -1.3412 4280181010
-0.14608 0.24284001 -1.3413 4280181010
-0.14399 0.24303 -1.3423001 4280181010
-0.14184999 0.24304999 -1.3424 4280181010
-0.13971999 0.24305999 -1.3425 4280181010
-0.13768999 0.24360999 -1.3455 4280181010
-0.13555001 0.24361999 -1.3456 4280181010
-0.18866 0.24374001 -1.3386 4280181010
-0.18668 0.24413 -1.3407 4280181010
-0.18461999 0.24433 -1.3419 4280181010
-0.14825 0.24434 -1.3419 4280181010
-0.14189 0.24457 -1.3432 4280181010
-0.13968 0.24422 -1.3413 4280181010
-0.13762 0.24459 -1.3433 4280181010
-0.13545001 0.24443001 -1.3424 4280181010
-0.13332 0.24444 -1.3425 4280181010
-0.19087 0.24523 -1.3392 4280181010
-0.18881001 0.24544001 -1.3403 4280181010
-0.18668 0.24547 -1.3405 4280181010
-0.18469 0.24585 -1.3426 4280181010
-0.14612 0.2457 -1.3418 4280181010
-0.14395 0.24553999 -1.3408999 4280181010
-0.14184999 0.24573 -1.3419 4280181010
-0.13965 0.24538 -1.34 4280181010
-0.13759001 0.24575999 -1.3421 4280181010
-0.13548 0.24595 -1.3431 4280181010
-0.18904001 0.24732 -1.3430001 4280181010
-0.18661 0.24663 -1.3393 4280181010
-0.14173999 0.24653 -1.3387001 4280181010
-0.13965 0.24672 -1.3398 4280181010
-0.13752 0.24674 -1.3399 4280181010
-0.13541999 0.24693 -1.3408999 4280181010
-0.19070999 0.24755 -1.3367 4280181010
-0.18881001 0.24812999 -1.3398 4280181010
-0.13965 0.24807 -1.3395 4280181010
-0.13752 0.24809 -1.3396 4280181010
-0.13539 0.2481 -1.3397 4280181010
-0.1311 0.24794 -1.3388 4280181010
-0.13961001 0.24925999 -1.3383 4280181010
-0.13744999 0.24909 -1.3374 4280181010
-0.13536 0.24929 -1.3384 4280181010
-0.1332 0.24912 -1.3375 4280181010
-0.1311 0.24931 -1.3386 4280181010
-0.13536 0.25066 -1.3382 4280181010
