# .PCD v0.7 - Point Cloud Data file format
VERSION 0.7
FIELDS x y z rgb
SIZE 4 4 4 4
TYPE F F F U
COUNT 1 1 1 1
WIDTH 745
HEIGHT 1
VIEWPOINT 0 0 0 1 0 0 0
POINTS 745
DATA ascii
-0.83456999 -0.68098998 -1.1882 4285321261
-0.83456999 -0.6807 -1.1884 4285321261
-0.85424 -0.67939001 -1.1874 4285321261
-0.87935001 -0.68001002 -1.1892999 4285321261
-0.85158002 -0.67927003 -1.1881 4285321261
-0.87880999 -0.67923999 -1.1888 4285321261
-0.85315001 -0.68019003 -1.1905 4285321261
-0.87826997 -0.67840999 -1.1883 4285321261
-0.85100001 -0.68043 -1.1919 4285321261
-0.84938002 -0.68150002 -1.1937 4285321261
-0.83406001 -0.67856997 -1.1885999 4285321261
-0.86168998 -0.67907 -1.1904 4285321261
-0.85477 -0.67828 -1.1891 4285321261
-0.85263002 -0.67894 -1.1902 4285321261
-0.84943998 -0.67874002 -1.1899 4285321261
-0.86488998 -0.67885 -1.191 4285321261
-0.86168998 -0.67866999 -1.1907001 4285321261
-0.85901999 -0.67891002 -1.1911 4285321261
-0.85529 -0.67830002 -1.1900001 4285321261
-0.85263002 -0.67852998 -1.1904 4285321261
-0.84996003 -0.67875999 -1.1908 4285321261
-0.83508998 -0.67860001 -1.1906 4285321261
-0.83293998 -0.67923999 -1.1917 4285321261
-0.87774003 -0.67912 -1.1924 4285321261
-0.87291002 -0.68005002 -1.194 4285321261
-0.86330003 -0.67719001 -1.189 4285321261
-0.86115998 -0.67785001 -1.1902 4285321261
-0.86006999 -0.67935002 -1.1928 4285321261
-0.85687 -0.67916 -1.1925 4285321261
-0.83775002 -0.67798001 -1.1904 4285321261
-0.83560002 -0.67861998 -1.1914999 4285321261
-0.83293998 -0.67883003 -1.1919 4285321261
-0.8574 -0.67918003 -1.1934 4285321261
-0.85420001 -0.67899001 -1.1931 4285321261
-0.85153002 -0.67922997 -1.1935 4285321261
-0.84728998 -0.67818999 -1.1917 4285321261
-0.84033 -0.67970002 -1.1944 4285321261
-0.87935001 -0.67957002 -1.1950999 4285321261
-0.87022001 -0.67948997 -1.1949 4285321261
-0.86647999 -0.6789 -1.1939 4285321261
-0.86168998 -0.67746001 -1.1914001 4285321261
-0.85901999 -0.67769998 -1.1918 4285321261
-0.85633999 -0.67794001 -1.1921999 4285321261
-0.85420001 -0.67859 -1.1933 4285321261
-0.85100001 -0.67839998 -1.193 4285321261
-0.84780997 -0.67821002 -1.1927 4285321261
-0.84566998 -0.67885 -1.1938 4285321261
-0.84135997 -0.68014002 -1.1961 4285321261
-0.87022001 -0.67907 -1.1952 4285321261
-0.86221999 -0.67747003 -1.1923 4285321261
-0.86006999 -0.67812002 -1.1935 4285321261
-0.85633999 -0.67751998 -1.1924 4285321261
-0.85472 -0.67860001 -1.1943001 4285321261
-0.85153002 -0.67840999 -1.194 4285321261
-0.84091997 -0.67697001 -1.1914999 4285321261
-0.83877999 -0.67760998 -1.1926 4285321261
-0.83560002 -0.67739999 -1.1921999 4285321261
-0.83243001 -0.67719001 -1.1918 4285321261
-0.87826997 -0.67556 -1.1899 4285321261
-0.87022001 -0.67865002 -1.1954 4285321261
-0.86326998 -0.67789 -1.194 4285321261
-0.85953999 -0.67729002 -1.193 4285321261
-0.85420001 -0.67776 -1.1938 4285321261
-0.85153002 -0.67799002 -1.1942 4285321261
-0.83981001 -0.67804003 -1.1943001 4285321261
-0.83612001 -0.67741001 -1.1932 4285321261
-0.87667 -0.67616999 -1.1921 4285321261
-0.87023997 -0.67584002 -1.1914999 4285321261
-0.86488998 -0.67632997 -1.1924 4285321261
-0.86221999 -0.67657 -1.1928 4285321261
-0.86006999 -0.67723 -1.194 4285321261
-0.8574 -0.67747003 -1.1944 4285321261
-0.85420001 -0.67728001 -1.1941 4285321261
-0.85205001 -0.67793 -1.1952 4285321261
-0.84886003 -0.67773998 -1.1949 4285321261
-0.84618002 -0.67795998 -1.1953 4285321261
-0.84248 -0.67733997 -1.1942 4285321261
-0.87826997 -0.67694002 -1.1946 4285321261
-0.87399 -0.67594999 -1.1928999 4285321261
-0.86435997 -0.67543 -1.1919 4285321261
-0.86221999 -0.67609 -1.1931 4285321261
-0.85953999 -0.67632997 -1.1935 4285321261
-0.85791999 -0.67741001 -1.1954 4285321261
-0.85472 -0.67721999 -1.1950999 4285321261
-0.85205001 -0.67745 -1.1955 4285321261
-0.84938002 -0.67768002 -1.1959 4285321261
-0.84670001 -0.67790002 -1.1963 4285321261
-0.84196001 -0.67644 -1.1937 4285321261
-0.83825999 -0.67580998 -1.1926 4285321261
-0.83243001 -0.67581999 -1.1926 4285321261
-0.88363999 -0.67592001 -1.194 4285321261
-0.88042003 -0.67575997 -1.1937 4285321261
-0.87826997 -0.67642999 -1.1949 4285321261
-0.87611997 -0.6771 -1.1961 4285321261
-0.87291002 -0.67694002 -1.1957999 4285321261
-0.86862999 -0.67593998 -1.194 4285321261
-0.86541998 -0.67575997 -1.1937 4285321261
-0.86326998 -0.67641997 -1.1949 4285321261
-0.85795999 -0.67457002 -1.1916 4285321261
-0.85472 -0.67671001 -1.1954 4285321261
-0.85308999 -0.67777997 -1.1973 4285321261
-0.85093999 -0.67843002 -1.1984 4285321261
-0.84722 -0.67782003 -1.1973 4285321261
-0.84248 -0.67635 -1.1948 4285321261
-0.83825999 -0.67531002 -1.1928999 4285321261
-0.88203001 -0.67649001 -1.1962 4285321261
-0.87988001 -0.67716998 -1.1974 4285321261
-0.87826002 -0.67825001 -1.1993001 4285321261
-0.87503999 -0.67808998 -1.199 4285321261
-0.87129003 -0.67751002 -1.198 4285321261
-0.86807001 -0.67733997 -1.1977 4285321261
-0.86486 -0.67716002 -1.1974 4285321261
-0.86111999 -0.67657 -1.1963 4285321261
-0.8574 -0.67597002 -1.1953 4285321261
-0.85628998 -0.67746001 -1.1979001 4285321261
-0.85361999 -0.67769003 -1.1983 4285321261
-0.88310999 -0.67679 -1.198 4285321261
-0.87988001 -0.67663002 -1.1977 4285321261
-0.87559003 -0.67563999 -1.1959 4285321261
-0.87237 -0.67546999 -1.1956 4285321261
-0.86862999 -0.67488998 -1.1946 4285321261
-0.86647999 -0.67554998 -1.1957999 4285321261
-0.86274999 -0.67496002 -1.1947 4285321261
-0.85791999 -0.67584997 -1.1963 4285321261
-0.85576999 -0.67650002 -1.1975 4285321261
-0.85048002 -0.67464 -1.1942 4285321261
-0.84833002 -0.67527997 -1.1953 4285321261
-0.84403002 -0.67657 -1.1976 4285321261
-0.83981001 -0.67552 -1.1957 4285321261
-0.88257003 -0.67583001 -1.1975 4285321261
-0.87611997 -0.67550999 -1.197 4285321261
-0.87344003 -0.67576998 -1.1974 4285321261
-0.86807001 -0.67625999 -1.1983 4285321261
-0.86539 -0.67650002 -1.1987 4285321261
-0.86164999 -0.67591 -1.1977 4285321261
-0.85896999 -0.67615002 -1.1981 4285321261
-0.85628998 -0.67637998 -1.1985 4285321261
-0.84938002 -0.67558002 -1.1971 4285321261
-0.84566998 -0.67496997 -1.196 4285321261
-0.84403002 -0.67602998 -1.1979001 4285321261
-0.83981001 -0.67497998 -1.196 4285321261
-0.88310999 -0.67575997 -1.1986001 4285321261
-0.87611997 -0.67502999 -1.1973 4285321261
-0.87396997 -0.67569 -1.1984 4285321261
-0.87181997 -0.67636001 -1.1996 4285321261
-0.86860001 -0.67619002 -1.1993001 4285321261
-0.86592001 -0.67642999 -1.1997 4285321261
-0.86059999 -0.67458999 -1.1964999 4285321261
-0.85791999 -0.67482001 -1.1969 4285321261
-0.85576999 -0.67546999 -1.198 4285321261
-0.84670001 -0.67532003 -1.1978 4285321261
-0.84507 -0.67637998 -1.1997 4285321261
-0.84188002 -0.67618001 -1.1993001 4285321261
-0.84074998 -0.67765999 -1.2019 4285321261
-0.88042003 -0.67553002 -1.1993001 4285321261
-0.87826002 -0.67619997 -1.2005 4285321261
-0.87503999 -0.67602998 -1.2002 4285321261
-0.87287998 -0.6767 -1.2014 4285321261
-0.86966002 -0.67653 -1.2011 4285321261
-0.86644 -0.67636001 -1.2007999 4285321261
-0.86164999 -0.67492998 -1.1982 4285321261
-0.85845 -0.67474997 -1.1979001 4285321261
-0.85576999 -0.67497998 -1.1983 4285321261
-0.84825999 -0.67609 -1.2003 4285321261
-0.84188002 -0.67569 -1.1996 4285321261
-0.83972001 -0.67632997 -1.2007 4285321261
-0.87988001 -0.67452002 -1.1989 4285321261
-0.87773001 -0.67518997 -1.2000999 4285321261
-0.87557 -0.67584997 -1.2013 4285321261
-0.87181997 -0.67527002 -1.2002 4285321261
-0.86860001 -0.67510003 -1.1999 4285321261
-0.86432999 -0.67409998 -1.1981 4285321261
-0.86164999 -0.67434001 -1.1986001 4285321261
-0.85896999 -0.67457002 -1.199 4285321261
-0.85681999 -0.67522001 -1.2000999 4285321261
-0.85308999 -0.67461997 -1.1991 4285321261
-0.85042 -0.67484999 -1.1995 4285321261
-0.84825999 -0.67549002 -1.2006 4285321261
-0.84342998 -0.67635 -1.2021 4285321261
-0.88203001 -0.67324001 -1.198 4285321261
-0.87880999 -0.67308003 -1.1978 4285321261
-0.86969 -0.67299998 -1.1976 4285321261
-0.86754 -0.67365998 -1.1988 4285321261
-0.86539 -0.67431998 -1.2 4285321261
-0.86217999 -0.67414999 -1.1996 4285321261
-0.86001998 -0.67479998 -1.2007999 4285321261
-0.85681999 -0.67461997 -1.2005 4285321261
-0.85361999 -0.67443001 -1.2002 4285321261
-0.84351999 -0.67343003 -1.1984 4285321261
-0.84085 -0.67365003 -1.1988 4285321261
-0.88310999 -0.67346001 -1.1998 4285321261
-0.87880999 -0.67247999 -1.1981 4285321261
-0.87665999 -0.67313999 -1.1993001 4285321261
-0.87449998 -0.67381001 -1.2005 4285321261
-0.87022001 -0.67281002 -1.1987 4285321261
-0.86807001 -0.67347002 -1.1999 4285321261
-0.86592001 -0.67413002 -1.201 4285321261
-0.86322999 -0.67436999 -1.2015001 4285321261
-0.86106998 -0.67501998 -1.2026 4285321261
-0.85733998 -0.67443001 -1.2016 4285321261
-0.85675001 -0.67632997 -1.205 4285321261
-0.85197997 -0.67488998 -1.2024 4285321261
-0.84351999 -0.67281997 -1.1987 4285321261
-0.84033 -0.67262 -1.1984 4285321261
-0.88418001 -0.67368001 -1.2017 4285321261
-0.88042003 -0.67311001 -1.2006 4285321261
-0.87773001 -0.67335999 -1.2011 4285321261
-0.87503999 -0.67361999 -1.2015001 4285321261
-0.87181997 -0.67344999 -1.2013 4285321261
-0.86913002 -0.67369998 -1.2017 4285321261
-0.86592001 -0.67352003 -1.2014 4285321261
-0.86322999 -0.67376 -1.2018 4285321261
-0.85949999 -0.67316997 -1.2007 4285321261
-0.85525 -0.67215002 -1.1989 4285321261
-0.85571003 -0.67488003 -1.2038 4285321261
-0.85197997 -0.67427999 -1.2027 4285321261
-0.84714001 -0.67514002 -1.2043 4285321261
-0.84290999 -0.67411 -1.2024 4285321261
-0.88472003 -0.67351002 -1.2027 4285321261
-0.88256001 -0.67417997 -1.2039 4285321261
-0.87718999 -0.67237002 -1.2007 4285321261
-0.87396997 -0.67220998 -1.2004 4285321261
-0.86913002 -0.67312002 -1.202 4285321261
-0.86539 -0.67253 -1.201 4285321261
-0.86217999 -0.67234999 -1.2007 4285321261
-0.86106998 -0.67383999 -1.2033 4285321261
-0.85628998 -0.67241001 -1.2007 4285321261
-0.85308999 -0.67221999 -1.2004 4285321261
-0.84990001 -0.67202997 -1.2000999 4285321261
-0.84610999 -0.67373002 -1.2031 4285321261
-0.84290999 -0.67352998 -1.2028 4285321261
-0.88418001 -0.67251998 -1.2023 4285321261
-0.88094997 -0.67236 -1.202 4285321261
-0.87665999 -0.67137998 -1.2003 4285321261
-0.87396997 -0.67163002 -1.2007 4285321261
-0.86966002 -0.67295003 -1.2031 4285321261
-0.86486 -0.67154002 -1.2005 4285321261
-0.86164999 -0.67136002 -1.2002 4285321261
-0.85949999 -0.67201 -1.2014 4285321261
-0.85681999 -0.67224002 -1.2018 4285321261
-0.84938002 -0.67102998 -1.1997 4285321261
-0.84722 -0.67167002 -1.2007999 4285321261
-0.84403002 -0.67148 -1.2004 4285321261
-0.84135997 -0.6717 -1.2007999 4285321261
-0.88202 -0.67247999 -1.2039 4285321261
-0.87879997 -0.67232001 -1.2036 4285321261
-0.8761 -0.67256999 -1.2041 4285321261
-0.87393999 -0.67324001 -1.2053 4285321261
-0.86966002 -0.67224002 -1.2035 4285321261
-0.86539 -0.67123997 -1.2017 4285321261
-0.86164999 -0.67065001 -1.2006 4285321261
-0.86001998 -0.67172003 -1.2025 4285321261
-0.85838997 -0.67277998 -1.2043999 4285321261
-0.85571003 -0.67300999 -1.2049 4285321261
-0.85354 -0.67365998 -1.206 4285321261
-0.84930003 -0.67263001 -1.2042 4285321261
-0.84662002 -0.67286003 -1.2046 4285321261
-0.88633001 -0.67273003 -1.2061 4285321261
-0.88309997 -0.67258 -1.2058001 4285321261
-0.87985998 -0.67242002 -1.2055 4285321261
-0.87664002 -0.67225999 -1.2052 4285321261
-0.87393999 -0.67251003 -1.2057 4285321261
-0.87124997 -0.67276001 -1.2061 4285321261
-0.86856002 -0.67299998 -1.2065001 4285321261
-0.86480999 -0.67241001 -1.2055 4285321261
-0.86106998 -0.67181998 -1.2043999 4285321261
-0.85786998 -0.67163998 -1.2041 4285321261
-0.85518003 -0.67186999 -1.2045 4285321261
-0.85250002 -0.67210001 -1.2049 4285321261
-0.84877998 -0.67149001 -1.2038 4285321261
-0.84662002 -0.67212999 -1.205 4285321261
-0.88633001 -0.67212999 -1.2064 4285321261
-0.88417 -0.6728 -1.2076 4285321261
-0.88147002 -0.67306 -1.2079999 4285321261
-0.87664002 -0.67167002 -1.2055 4285321261
-0.87393999 -0.67190999 -1.206 4285321261
-0.87230998 -0.67299002 -1.2079 4285321261
-0.86750001 -0.67158002 -1.2054 4285321261
-0.86375999 -0.67098999 -1.2043 4285321261
-0.85949999 -0.66999 -1.2025 4285321261
-0.85681999 -0.67022002 -1.2029001 4285321261
-0.85465997 -0.67085999 -1.2041 4285321261
-0.85197997 -0.67109001 -1.2045 4285321261
-0.84825999 -0.67048001 -1.2034 4285321261
-0.88525999 -0.67071998 -1.2052 4285321261
-0.88309997 -0.67137998 -1.2064 4285321261
-0.88147002 -0.67246002 -1.2084 4285321261
-0.87664002 -0.67106998 -1.2059 4285321261
-0.87340999 -0.67091 -1.2056 4285321261
-0.87124997 -0.67155999 -1.2068 4285321261
-0.86909002 -0.67221999 -1.2079 4285321261
-0.86533999 -0.67163002 -1.2069 4285321261
-0.86054999 -0.67022002 -1.2043 4285321261
-0.85838997 -0.67085999 -1.2055 4285321261
-0.85623002 -0.67150998 -1.2067 4285321261
-0.85459 -0.67256999 -1.2086 4285321261
-0.85189998 -0.67278999 -1.209 4285321261
-0.84498 -0.67198998 -1.2075 4285321261
-0.84280998 -0.67262 -1.2086999 4285321261
-0.88418001 -0.66917002 -1.2042 4285321261
-0.88202 -0.66983998 -1.2054 4285321261
-0.88147002 -0.67172998 -1.2088 4285321261
-0.87876999 -0.67198998 -1.2092 4285321261
-0.87447 -0.671 -1.2075 4285321261
-0.86913002 -0.66918999 -1.2042 4285321261
-0.86909002 -0.67149001 -1.2084 4285321261
-0.86638999 -0.67172998 -1.2088 4285321261
-0.86422998 -0.67237997 -1.21 4285321261
-0.85838997 -0.67014003 -1.2059 4285321261
-0.85571003 -0.67036998 -1.2063 4285321261
-0.85302001 -0.6706 -1.2067 4285321261
-0.85034001 -0.67082 -1.2071 4285321261
-0.84714001 -0.67062998 -1.2068 4285321261
-0.84601003 -0.67208999 -1.2094001 4285321261
-0.84280998 -0.67189997 -1.2091 4285321261
-0.88418001 -0.66842997 -1.2046 4285321261
-0.88202 -0.66909999 -1.2058001 4285321261
-0.87985998 -0.66975999 -1.207 4285321261
-0.87823999 -0.67083001 -1.2089 4285321261
-0.87660003 -0.67189997 -1.2108001 4285321261
-0.87230998 -0.67092001 -1.2091 4285321261
-0.86803001 -0.66992998 -1.2072999 4285321261
-0.86587 -0.67058003 -1.2085 4285321261
-0.86317998 -0.67080998 -1.2089 4285321261
-0.85996002 -0.67063999 -1.2086 4285321261
-0.85571003 -0.66962999 -1.2067 4285321261
-0.85302001 -0.66984999 -1.2071 4285321261
-0.85086 -0.67049003 -1.2083 4285321261
-0.84818 -0.67071998 -1.2086999 4285321261
-0.8423 -0.67074001 -1.2086999 4285321261
-0.88633001 -0.66933 -1.2079 4285321261
-0.88256001 -0.66877002 -1.2069 4285321261
-0.8804 -0.66943002 -1.2081 4285321261
-0.87823999 -0.67009002 -1.2093 4285321261
-0.87660003 -0.67115998 -1.2113 4285321261
-0.86803001 -0.66918999 -1.2077 4285321261
-0.86480999 -0.66902 -1.2074 4285321261
-0.86317998 -0.67008001 -1.2093 4285321261
-0.86153001 -0.67114002 -1.2112 4285321261
-0.85780001 -0.67053998 -1.2101001 4285321261
-0.85250002 -0.66869998 -1.2068 4285321261
-0.84930003 -0.66851002 -1.2065001 4285321261
-0.84818 -0.66997999 -1.2091 4285321261
-0.88793999 -0.66982001 -1.2106 4285321261
-0.8847 -0.66966999 -1.2103 4285321261
-0.88147002 -0.66951001 -1.21 4285321261
-0.87876999 -0.66977 -1.2105 4285321261
-0.87393999 -0.66837001 -1.2079999 4285321261
-0.87177998 -0.66903001 -1.2091 4285321261
-0.86697 -0.66763002 -1.2066 4285321261
-0.86480999 -0.66828001 -1.2078 4285321261
-0.86212999 -0.66851002 -1.2082 4285321261
-0.86101002 -0.66997999 -1.2108999 4285321261
-0.85832 -0.67022002 -1.2113 4285321261
-0.85459 -0.66961998 -1.2102 4285321261
-0.88687003 -0.66829002 -1.2095 4285321261
-0.88309997 -0.66772997 -1.2085 4285321261
-0.88093001 -0.66839999 -1.2097 4285321261
-0.87717003 -0.66782999 -1.2086 4285321261
-0.87393999 -0.66767001 -1.2083 4285321261
-0.87230998 -0.66873002 -1.2103 4285321261
-0.86856002 -0.66816002 -1.2092 4285321261
-0.86638999 -0.66881001 -1.2104 4285321261
-0.86264998 -0.66821998 -1.2093 4285321261
-0.86049002 -0.66886997 -1.2105 4285321261
-0.85883999 -0.66992003 -1.2124 4285321261
-0.85510999 -0.66933 -1.2113 4285321261
-0.85294002 -0.66996002 -1.2125 4285321261
-0.88362998 -0.66744 -1.2096 4285321261
-0.88093001 -0.66768998 -1.2101001 4285321261
-0.87717003 -0.66711998 -1.209 4285321261
-0.87501001 -0.66777998 -1.2102 4285321261
-0.87336999 -0.66885 -1.2122 4285321261
-0.86369997 -0.66834003 -1.2112 4285321261
-0.86206001 -0.66939002 -1.2131 4285321261
-0.85935998 -0.66962999 -1.2136 4285321261
-0.85719001 -0.67027003 -1.2147 4285321261
-0.85294002 -0.66926003 -1.2129 4285321261
-0.88147002 -0.66731 -1.2112 4285321261
-0.87769997 -0.66675001 -1.2102 4285321261
-0.87554002 -0.6674 -1.2114 4285321261
-0.86587 -0.66689998 -1.2105 4285321261
-0.86159998 -0.66591001 -1.2086999 4285321261
-0.86049002 -0.66737002 -1.2113 4285321261
-0.85727 -0.66719002 -1.211 4285321261
-0.85667002 -0.66907001 -1.2144001 4285321261
-0.85241997 -0.66806 -1.2126 4285321261
-0.88200003 -0.66693002 -1.2124 4285321261
-0.87823999 -0.66636997 -1.2114 4285321261
-0.86533999 -0.66570997 -1.2102 4285321261
-0.86159998 -0.66512001 -1.2091 4285321261
-0.85944003 -0.66576999 -1.2103 4285321261
-0.85675001 -0.66599 -1.2107 4285321261
-0.85354 -0.66580999 -1.2104 4285321261
-0.8793 -0.66646999 -1.2133 4285321261
-0.86527997 -0.66727 -1.2147 4285321261
-0.86258 -0.66750997 -1.2151999 4285321261
-0.85780001 -0.66610003 -1.2126 4285321261
-0.85562998 -0.66674 -1.2137001 4285321261
-0.85241997 -0.66654998 -1.2134 4285321261
-0.86258 -0.66679001 -1.2155 4285321261
-0.85935998 -0.66661 -1.2151999 4285321261
-0.85667002 -0.66684002 -1.2156 4285321261
-0.85294002 -0.66623998 -1.2146 4285321261
-0.86206001 -0.66548002 -1.2153 4285321261
-0.85832 -0.66488999 -1.2142 4285321261
-0.85562998 -0.66512001 -1.2146 4285321261
-0.86363 -0.66579002 -1.2180001 4285321261
-0.86145002 -0.66644001 -1.2192 4285321261
-0.85771 -0.66584998 -1.2181 4285321261
-0.85658002 -0.66729999 -1.2208 4285321261
-0.84755999 -0.66487002 -1.2163 4285321261
-0.84539002 -0.66549999 -1.2175 4285321261
-0.86414999 -0.66542 -1.2192 4285321261
-0.86093003 -0.66523999 -1.2189 4285321261
-0.85874999 -0.66588002 -1.2201 4285321261
-0.85658002 -0.66652 -1.2212 4285321261
-0.85491002 -0.66755998 -1.2230999 4285321261
-0.84911001 -0.66531998 -1.219 4285321261
-0.8459 -0.66513002 -1.2187001 4285321261
-0.86467999 -0.66504002 -1.2204 4285321261
-0.86145002 -0.66487002 -1.2201 4285321261
-0.85667002 -0.66346002 -1.2175 4285321261
-0.85398 -0.66368997 -1.2179 4285321261
-0.85128999 -0.66390997 -1.2183 4285321261
-0.84601003 -0.66207999 -1.2149 4285321261
-0.84280998 -0.66188002 -1.2146 4285321261
-0.86519998 -0.66455001 -1.2216001 4285321261
-0.86250001 -0.66478002 -1.2221 4285321261
-0.85771 -0.66338003 -1.2194999 4285321261
-0.8545 -0.66319001 -1.2191 4285321261
-0.85232002 -0.66382003 -1.2203 4285321261
-0.84807998 -0.66281998 -1.2184 4285321261
-0.84435999 -0.66220999 -1.2173001 4285321261
-0.86093003 -0.66263998 -1.2203 4285321261
-0.85822999 -0.66286999 -1.2207 4285321261
-0.85553998 -0.66308999 -1.2211 4285321261
-0.85336 -0.66372001 -1.2223001 4285321261
-0.84911001 -0.66272002 -1.2204 4285321261
-0.8459 -0.66253 -1.2201 4285321261
-0.8427 -0.66232997 -1.2197 4285321261
-0.86040998 -0.66136003 -1.22 4285321261
-0.85771 -0.66158998 -1.2204 4285321261
-0.85128999 -0.66122001 -1.2198 4285321261
-0.85013998 -0.66266 -1.2224 4285321261
-0.84539002 -0.66125 -1.2198 4285321261
-0.85491002 -0.66320002 -1.2255 4285321261
-0.85168999 -0.66301 -1.2252001 4285321261
-0.84745002 -0.66201001 -1.2233 4285321261
-0.84372997 -0.66140002 -1.2222 4285321261
-0.86353999 -0.66198999 -1.2255 4285321261
-0.86084002 -0.66220999 -1.2259001 4285321261
-0.85658002 -0.66122001 -1.2241 4285321261
-0.85439003 -0.66184998 -1.2253 4285321261
-0.85013998 -0.66084999 -1.2234 4285321261
-0.84693003 -0.66066003 -1.2230999 4285321261
-0.84372997 -0.66047001 -1.2227 4285321261
-0.86302 -0.66064 -1.2253 4285321261
-0.86031997 -0.66087002 -1.2257 4285321261
-0.8545 -0.65865999 -1.2216001 4285321261
-0.85336 -0.66009998 -1.2243 4285321261
-0.84963 -0.65951002 -1.2232 4285321261
-0.84693003 -0.65972 -1.2236 4285321261
-0.86458999 -0.6609 -1.228 4285321261
-0.86084002 -0.66031998 -1.2269 4285321261
-0.85710001 -0.65973997 -1.2259001 4285321261
-0.85439003 -0.65995997 -1.2263 4285321261
-0.85168999 -0.66017997 -1.2266999 4285321261
-0.84951001 -0.66079998 -1.2278 4285321261
-0.86302 -0.65872997 -1.2263 4285321261
-0.85979998 -0.65855998 -1.226 4285321261
-0.85658002 -0.65837997 -1.2256 4285321261
-0.85439003 -0.65899998 -1.2268 4285321261
-0.85220999 -0.65963 -1.228 4285321261
-0.85001999 -0.66025001 -1.2291 4285321261
-0.87323999 -0.65867001 -1.2285 4285321261
-0.87001002 -0.65850002 -1.2282 4285321261
-0.86677003 -0.65833998 -1.2279 4285321261
-0.86302 -0.65776002 -1.2268 4285321261
-0.86031997 -0.65798998 -1.2272 4285321261
-0.85606003 -0.65700001 -1.2254 4285321261
-0.85387999 -0.65763003 -1.2266001 4285321261
-0.85168999 -0.65824997 -1.2277 4285321261
-0.84693003 -0.65684998 -1.2251 4285321261
-0.87761003 -0.65640998 -1.2266001 4285321261
-0.87542999 -0.65706003 -1.2278 4285321261
-0.87377 -0.65810001 -1.2298 4285321261
-0.87106001 -0.65833002 -1.2302001 4285321261
-0.86782002 -0.65816998 -1.2299 4285321261
-0.86562997 -0.65880001 -1.2311 4285321261
-0.86343998 -0.65943003 -1.2323 4285321261
-0.85969001 -0.65885001 -1.2312 4285321261
-0.85595 -0.65827 -1.2301 4285321261
-0.85272998 -0.65809 -1.2298 4285321261
-0.85053998 -0.65871 -1.2309 4285321261
-0.88676 -0.65767002 -1.2315 4285321261
-0.87919998 -0.65657002 -1.2294 4285321261
-0.87595999 -0.65641999 -1.2291 4285321261
-0.87377 -0.65705001 -1.2302999 4285321261
-0.87053001 -0.65688998 -1.23 4285321261
-0.86729997 -0.65671998 -1.2297 4285321261
-0.86510998 -0.65736002 -1.2309 4285321261
-0.86291999 -0.65798998 -1.2321 4285321261
-0.86072999 -0.65862 -1.2333 4285321261
-0.85646999 -0.65763003 -1.2314 4285321261
-0.85376 -0.65785003 -1.2318 4285321261
-0.85053998 -0.65766001 -1.2315 4285321261
-0.88729 -0.65704 -1.2328 4285321261
-0.88404 -0.65688998 -1.2325 4285321261
-0.87919998 -0.65553999 -1.23 4285321261
-0.87595999 -0.65538001 -1.2297 4285321261
-0.87377 -0.65601999 -1.2309 4285321261
-0.86948001 -0.65505999 -1.2291 4285321261
-0.86729997 -0.65569001 -1.2302999 4285321261
-0.86510998 -0.65631998 -1.2314 4285321261
-0.86291999 -0.65695 -1.2326 4285321261
-0.85969001 -0.65678 -1.2323 4285321261
-0.85646999 -0.6566 -1.232 4285321261
-0.85220999 -0.65561002 -1.2301 4285321261
-0.88676 -0.65570003 -1.2325 4285321261
-0.88457 -0.65634 -1.2338001 4285321261
-0.88132 -0.65618998 -1.2335 4285321261
-0.87807 -0.65604001 -1.2332 4285321261
-0.8743 -0.65548003 -1.2321 4285321261
-0.87211001 -0.65610999 -1.2333 4285321261
-0.86992002 -0.65675002 -1.2345001 4285321261
-0.86772001 -0.65737998 -1.2357 4285321261
-0.86396998 -0.65680999 -1.2345999 4285321261
-0.86072999 -0.65662998 -1.2343 4285321261
-0.85802001 -0.65685999 -1.2347 4285321261
-0.85427999 -0.65627003 -1.2336 4285321261
-0.88783002 -0.65553999 -1.2345001 4285321261
-0.88563001 -0.65618998 -1.2358 4285321261
-0.88185 -0.65564001 -1.2347 4285321261
-0.87807 -0.65508997 -1.2337 4285321261
-0.87588 -0.65573001 -1.2349 4285321261
-0.87316 -0.65596998 -1.2352999 4285321261
-0.87149 -0.65700001 -1.2373 4285321261
-0.86772001 -0.65643001 -1.2362 4285321261
-0.86448997 -0.65626001 -1.2359 4285321261
-0.85854 -0.65631002 -1.2359999 4285321261
-0.85531002 -0.65613002 -1.2356 4285321261
-0.84951001 -0.65394002 -1.2315 4285321261
-0.88995999 -0.65603 -1.2381001 4285321261
-0.88563001 -0.65508997 -1.2363 4285321261
-0.88132 -0.65415001 -1.2345999 4285321261
-0.87807 -0.65398997 -1.2343 4285321261
-0.87535 -0.65423 -1.2347 4285321261
-0.87211001 -0.65407002 -1.2344 4285321261
-0.87044001 -0.65509999 -1.2364 4285321261
-0.86772001 -0.65533 -1.2368 4285321261
-0.86501002 -0.65556002 -1.2372 4285321261
-0.86176997 -0.65539002 -1.2369 4285321261
-0.85854 -0.65521002 -1.2366 4285321261
-0.85220999 -0.65262997 -1.2316999 4285321261
-0.89156002 -0.65609998 -1.2410001 4285321261
-0.88563001 -0.65398002 -1.2369 4285321261
-0.88238001 -0.65382999 -1.2366 4285321261
-0.88018 -0.65447003 -1.2379 4285321261
-0.87799001 -0.65509999 -1.2391 4285321261
-0.87579 -0.65574002 -1.2403001 4285321261
-0.87149 -0.65477997 -1.2385 4285321261
-0.86825001 -0.65461999 -1.2381001 4285321261
-0.86605 -0.65524 -1.2393 4285321261
-0.86124998 -0.65386999 -1.2367001 4285321261
-0.85802001 -0.65369999 -1.2364 4285321261
-0.85324001 -0.65232003 -1.2338001 4285321261
-0.88995999 -0.65397 -1.2392 4285321261
-0.88617003 -0.65342999 -1.2381999 4285321261
-0.88291001 -0.65328002 -1.2379 4285321261
-0.88124001 -0.65432 -1.2399 4285321261
-0.87851 -0.65456003 -1.2403001 4285321261
-0.87630999 -0.6552 -1.2415 4285321261
-0.87149 -0.65384001 -1.239 4285321261
-0.86825001 -0.65368003 -1.2386 4285321261
-0.86605 -0.65429997 -1.2398 4285321261
-0.86124998 -0.65293998 -1.2372 4285321261
-0.85854 -0.65315998 -1.2377 4285321261
-0.85376 -0.65178001 -1.235 4285321261
-0.89049 -0.65322 -1.2406 4285321261
-0.88775998 -0.65346998 -1.2410001 4285321261
-0.88344002 -0.65253001 -1.2393 4285321261
-0.88071001 -0.65276998 -1.2397 4285321261
-0.87746 -0.65262002 -1.2394 4285321261
-0.87421 -0.65245998 -1.2391 4285321261
-0.86992002 -0.65149999 -1.2373 4285321261
-0.86772001 -0.65213001 -1.2385 4285321261
-0.86553001 -0.65276003 -1.2397 4285321261
-0.86281002 -0.65298003 -1.2401 4285321261
-0.88828999 -0.65272999 -1.2424001 4285321261
-0.88291001 -0.65100998 -1.2391 4285321261
-0.88071001 -0.65165001 -1.2403001 4285321261
-0.87799001 -0.65188998 -1.2408 4285321261
-0.87526 -0.65211999 -1.2412 4285321261
-0.86992002 -0.65038002 -1.2379 4285321261
-0.86825001 -0.65140003 -1.2398 4285321261
-0.86553001 -0.65162998 -1.2403001 4285321261
-0.86333001 -0.65224999 -1.2415 4285321261
-0.85957003 -0.65167999 -1.2404 4285321261
-0.88775998 -0.65121001 -1.2422 4285321261
-0.88555998 -0.65184999 -1.2434 4285321261
-0.88071001 -0.65052003 -1.2409 4285321261
-0.87799001 -0.65075999 -1.2414 4285321261
-0.87474 -0.65060002 -1.2411 4285321261
-0.87305999 -0.65161997 -1.243 4285321261
-0.87085998 -0.65224999 -1.2442 4285321261
-0.86553001 -0.6505 -1.2409 4285321261
-0.86333001 -0.65112001 -1.2421 4285321261
-0.85957003 -0.65055001 -1.2410001 4285321261
-0.88722998 -0.64967 -1.2421 4285321261
-0.88502997 -0.65030998 -1.2433 4285321261
-0.88230002 -0.65055001 -1.2438 4285321261
-0.87851 -0.65000999 -1.2427 4285321261
-0.87474 -0.64946002 -1.2417001 4285321261
-0.87254 -0.65008003 -1.2429 4285321261
-0.87033999 -0.65070999 -1.2441 4285321261
-0.86813003 -0.65132999 -1.2452 4285321261
-0.86281002 -0.64958 -1.2419 4285321261
-0.85854 -0.64861 -1.24 4285321261
-0.88828999 -0.64930999 -1.2442 4285321261
-0.88502997 -0.64916998 -1.2438999 4285321261
-0.88336003 -0.65019 -1.2459 4285321261
-0.88115001 -0.65082997 -1.2471 4285321261
-0.87684 -0.64989001 -1.2453001 4285321261
-0.87410998 -0.65012002 -1.2457 4285321261
-0.87137997 -0.65034997 -1.2462 4285321261
-0.86813003 -0.65019 -1.2458 4285321261
-0.86436999 -0.64962 -1.2448 4285321261
-0.88828999 -0.64826 -1.2447 4285321261
-0.88555998 -0.64850998 -1.2452 4285321261
-0.88388002 -0.64954001 -1.2472 4285321261
-0.88168001 -0.65017003 -1.2484 4285321261
-0.87735999 -0.64923 -1.2466 4285321261
-0.87515998 -0.64986002 -1.2478 4285321261
-0.87243003 -0.65008998 -1.2482001 4285321261
-0.86970001 -0.65031999 -1.2487 4285321261
-0.86593002 -0.64976001 -1.2476 4285321261
-0.86113 -0.64840001 -1.245 4285321261
-0.89156002 -0.64713001 -1.2457 4285321261
-0.88935 -0.64776999 -1.2469 4285321261
-0.88661999 -0.64801002 -1.2474 4285321261
-0.88336003 -0.64785999 -1.2471 4285321261
-0.88062 -0.64810002 -1.2474999 4285321261
-0.87842 -0.64872998 -1.2487 4285321261
-0.87568003 -0.64897001 -1.2492 4285321261
-0.87137997 -0.64802003 -1.2474 4285321261
-0.86229002 -0.64572001 -1.2429 4285321261
-0.89368999 -0.64749998 -1.2493 4285321261
-0.89306998 -0.64930999 -1.2528 4285321261
-0.88767999 -0.64761001 -1.2495 4285321261
-0.88546997 -0.64823997 -1.2507 4285321261
-0.8822 -0.64809 -1.2503999 4285321261
-0.87946999 -0.64832997 -1.2509 4285321261
-0.87620997 -0.64818001 -1.2506 4285321261
-0.87190002 -0.64723003 -1.2487 4285321261
-0.86918002 -0.64745998 -1.2492 4285321261
-0.86436999 -0.64611 -1.2466 4285321261
-0.89200997 -0.64747 -1.2517999 4285321261
-0.88821 -0.64692998 -1.2508 4285321261
-0.88546997 -0.64718002 -1.2513 4285321261
-0.88326001 -0.64780998 -1.2525001 4285321261
-0.87842 -0.64648002 -1.2499 4285321261
-0.87568003 -0.64671999 -1.2503999 4285321261
-0.86333001 -0.64425999 -1.2456 4285321261
-0.89148003 -0.64573997 -1.2517 4285321261
-0.88927001 -0.64636999 -1.253 4285321261
-0.88494003 -0.64545 -1.2512 4285321261
-0.88273001 -0.64608002 -1.2524 4285321261
-0.87788999 -0.64476001 -1.2498 4285321261
-0.87568003 -0.64538002 -1.2510999 4285321261
-0.89253998 -0.64529997 -1.2539001 4285321261
-0.89086002 -0.64631999 -1.2559 4285321261
-0.88757998 -0.64617002 -1.2556 4285321261
-0.88378 -0.64564002 -1.2545 4285321261
-0.87998998 -0.6451 -1.2535 4285321261
-0.87830001 -0.64611 -1.2555 4285321261
-0.87503999 -0.64595002 -1.2552 4285321261
-0.87022001 -0.64462 -1.2526 4285321261
-0.89467001 -0.64577001 -1.2574 4285321261
-0.89139003 -0.64563 -1.2572 4285321261
-0.88810998 -0.64548999 -1.2569 4285321261
-0.88537002 -0.64573002 -1.2574 4285321261
-0.88156998 -0.64519 -1.2563 4285321261
-0.87830001 -0.64503998 -1.256 4285321261
-0.87399 -0.64410001 -1.2542 4285321261
-0.89414001 -0.64418 -1.2573 4285321261
-0.89139003 -0.64442998 -1.2578 4285321261
-0.88810998 -0.64428997 -1.2575001 4285321261
-0.88378 -0.64336997 -1.2557 4285321261
-0.88103998 -0.64359999 -1.2562 4285321261
-0.87778002 -0.64345002 -1.2559 4285321261
-0.87347001 -0.64252001 -1.2541 4285321261
-0.89626002 -0.64442998 -1.261 4285321261
-0.89297998 -0.64428997 -1.2607 4285321261
-0.88704997 -0.64222002 -1.2567 4285321261
-0.88431001 -0.64245999 -1.2571 4285321261
-0.88261998 -0.64346999 -1.2591 4285321261
-0.88091999 -0.64447999 -1.2611001 4285321261
-0.87765002 -0.64433002 -1.2608 4285321261
-0.89679003 -0.64349002 -1.2624 4285321261
-0.89191997 -0.64218998 -1.2599 4285321261
-0.88810998 -0.64166999 -1.2589 4285321261
-0.88484001 -0.64152002 -1.2586 4285321261
-0.88261998 -0.64213997 -1.2598 4285321261
-0.87987 -0.64238 -1.2603 4285321261
-0.87503999 -0.64105999 -1.2577 4285321261
-0.89467001 -0.64072001 -1.26 4285321261
-0.89139003 -0.64058 -1.2598 4285321261
-0.88916999 -0.64121002 -1.261 4285321261
-0.88589001 -0.64107001 -1.2607 4285321261
-0.88366997 -0.64169002 -1.2618999 4285321261
-0.87987 -0.64115 -1.2609 4285321261
-0.89573002 -0.64026999 -1.2622 4285321261
-0.89139003 -0.63937002 -1.2604001 4285321261
-0.88863999 -0.63960999 -1.2609 4285321261
-0.88695002 -0.64061999 -1.2628 4285321261
-0.88366997 -0.64047003 -1.2625 4285321261
-0.88091999 -0.64071 -1.263 4285321261
-0.87607998 -0.63940001 -1.2604001 4285321261
-0.89626002 -0.63944 -1.2635 4285321261
-0.89191997 -0.63854003 -1.2617 4285321261
-0.88916999 -0.63878 -1.2622 4285321261
-0.88800001 -0.64016998 -1.265 4285321261
-0.88524997 -0.64041001 -1.2654001 4285321261
-0.88248998 -0.64064997 -1.2659 4285321261
-0.87607998 -0.63818002 -1.261 4285321261
-0.89732999 -0.63898998 -1.2657 4285321261
-0.89456999 -0.63924003 -1.2661 4285321261
-0.8897 -0.63795 -1.2636 4285321261
-0.88800001 -0.63896 -1.2656 4285321261
-0.88472003 -0.63880998 -1.2653 4285321261
-0.88145 -0.63866001 -1.265 4285321261
-0.89839 -0.63848001 -1.2678 4285321261
-0.8951 -0.63835001 -1.2675 4285321261
-0.89128 -0.63783002 -1.2665 4285321261
-0.88905001 -0.63845003 -1.2677 4285321261
-0.88524997 -0.63792998 -1.2667 4285321261
-0.90051001 -0.63871998 -1.2715 4285321261
-0.89456999 -0.63669002 -1.2674 4285321261
-0.89181 -0.63692999 -1.2679 4285321261
-0.88853002 -0.63678998 -1.2676001 4285321261
-0.89892 -0.63630003 -1.2699 4285321261
-0.8951 -0.63577998 -1.2688 4285321261
-0.89023 -0.63450003 -1.2663 4285321261
-0.90051001 -0.63615 -1.2728 4285321261
