# .PCD v0.7 - Point Cloud Data file format
VERSION 0.7
FIELDS x y z rgb
SIZE 4 4 4 4
TYPE F F F U
COUNT 1 1 1 1
WIDTH 105
HEIGHT 1
VIEWPOINT 0 0 0 1 0 0 0
POINTS 105
DATA ascii
0.18129 -0.68708998 -1.1934 4288969021
0.18129 -0.68558002 -1.1943001 4288969021
0.18085 -0.68379003 -1.1931 4288969021
0.18151 -0.68436003 -1.1961 4288969021
0.17482001 -0.68423998 -1.1967 4288969021
0.17891 -0.68329 -1.1950999 4288969021
0.18151 -0.68401003 -1.1963 4288969021
0.17891 -0.68292999 -1.1953 4288969021
0.17223001 -0.68273997 -1.1959 4288969021
0.17439 -0.68251002 -1.1955 4288969021
0.17287 -0.68377 -1.1987 4288969021
0.17439 -0.68208998 -1.1957 4288969021
0.17741001 -0.68379003 -1.1987 4288969021
0.17979001 -0.68403 -1.1991 4288969021
0.17265999 -0.68287998 -1.1981 4288969021
0.17482001 -0.68265003 -1.1977 4288969021
0.17719001 -0.68290001 -1.1981 4288969021
0.17460001 -0.68176001 -1.197 4288969021
0.17697001 -0.68200999 -1.1975 4288969021
0.17935 -0.68225002 -1.1979001 4288969021
0.18151 -0.68200999 -1.1975 4288969021
0.17287 -0.68256003 -1.1993999 4288969021
0.17524999 -0.68281001 -1.1998 4288969021
0.17741001 -0.68256998 -1.1993999 4288969021
0.17957 -0.68233001 -1.199 4288969021
0.17245001 -0.68119001 -1.1979001 4288969021
0.17524999 -0.68239999 -1.2 4288969021
0.17783999 -0.68313003 -1.2013 4288969021
0.18021999 -0.68336999 -1.2018 4288969021
0.18239 -0.68313003 -1.2013 4288969021
0.17265999 -0.68124998 -1.199 4288969021
0.17524999 -0.68198001 -1.2003 4288969021
0.17761999 -0.68223 -1.2007 4288969021
0.17979001 -0.68199003 -1.2003 4288969021
0.18217 -0.68223 -1.2007 4288969021
0.17092 -0.68203002 -1.2013 4288969021
0.17589 -0.68300998 -1.2031 4288969021
0.17935 -0.68061 -1.1988 4288969021
0.18217 -0.68181002 -1.201 4288969021
0.17156 -0.68300003 -1.2042 4288969021
0.17415 -0.68373001 -1.2055 4288969021
0.17653 -0.68397999 -1.2059 4288969021
0.17806 -0.68229002 -1.2029001 4288969021
0.18021999 -0.68206 -1.2025 4288969021
0.18217 -0.68133998 -1.2012 4288969021
0.17156 -0.68251002 -1.2043999 4288969021
0.1733 -0.68132001 -1.2023 4288969021
0.17568 -0.68155998 -1.2028 4288969021
0.17761999 -0.68085003 -1.2015001 4288969021
0.18000001 -0.68109 -1.2019 4288969021
0.18195 -0.68036997 -1.2007 4288969021
0.1705 -0.67958999 -1.2005 4288969021
0.17287 -0.67984003 -1.2009 4288969021
0.17546 -0.68057001 -1.2022001 4288969021
0.17783999 -0.68081999 -1.2026 4288969021
0.17979001 -0.68010002 -1.2014 4288969021
0.17092 -0.68004 -1.2025 4288969021
0.17287 -0.67932999 -1.2012 4288969021
0.17568 -0.68054003 -1.2033 4288969021
0.17827 -0.68125999 -1.2046 4288969021
0.18065999 -0.68150002 -1.2051001 4288969021
0.16525 -0.68211001 -1.2074 4288969021
0.17113 -0.67997998 -1.2036 4288969021
0.17372 -0.68071002 -1.2049 4288969021
0.17589 -0.68048 -1.2045 4288969021
0.17871 -0.68168002 -1.2066 4288969021
0.18065999 -0.68096 -1.2054 4288969021
0.18327001 -0.68168002 -1.2066 4288969021
0.17071 -0.67848003 -1.2022001 4288969021
0.17546 -0.67896998 -1.2031 4288969021
0.17827 -0.68018001 -1.2052 4288969021
0.18043999 -0.67993999 -1.2048 4288969021
0.18305001 -0.68066001 -1.2061 4288969021
0.17071 -0.67799002 -1.2025 4288969021
0.1733 -0.67870998 -1.2038 4288969021
0.17589 -0.67944002 -1.2051001 4288969021
0.17849 -0.68017 -1.2064 4288969021
0.18566 -0.68089002 -1.2076 4288969021
0.16743 -0.68035001 -1.2078 4288969021
0.17394 -0.67966002 -1.2066 4288969021
0.17653 -0.68039 -1.2079 4288969021
0.17871 -0.68014997 -1.2075 4288969021
0.18283001 -0.67919999 -1.2058001 4288969021
0.18544 -0.67991 -1.2071 4288969021
0.17219 -0.68024999 -1.2091 4288969021
0.17611 -0.67883003 -1.2066 4288969021
0.17783999 -0.67764002 -1.2043999 4288969021
0.18000001 -0.67739999 -1.204 4288969021
0.18261001 -0.67812002 -1.2053 4288969021
0.18566 -0.67979002 -1.2083 4288969021
0.17197999 -0.67916 -1.2086 4288969021
0.17761999 -0.67654997 -1.2039 4288969021
0.18109 -0.67918003 -1.2086 4288969021
0.18261001 -0.67751002 -1.2056 4288969021
0.17827 -0.67737001 -1.2068 4288969021
0.18065999 -0.67761999 -1.2072999 4288969021
0.17957 -0.67962998 -1.2122999 4288969021
0.18109 -0.67795998 -1.2093 4288969021
0.18348999 -0.67820001 -1.2097 4288969021
0.18109 -0.67738003 -1.2096 4288969021
0.18065999 -0.67584002 -1.2082 4288969021
0.18392999 -0.67798001 -1.2121 4288969021
0.18153 -0.67703003 -1.2121 4288969021
0.17914 -0.67606002 -1.212 4288969021
0.18588001 -0.67523003 -1.2119 4288969021
