# .PCD v0.7 - Point Cloud Data file format
VERSION 0.7
FIELDS x y z rgb
SIZE 4 4 4 4
TYPE F F F U
COUNT 1 1 1 1
WIDTH 101
HEIGHT 1
VIEWPOINT 0 0 0 1 0 0 0
POINTS 101
DATA ascii
0.2823 0.041476 -1.0849 4289528534
0.29242 0.041524999 -1.0862 4289528534
0.29407001 0.041499 -1.0855 4289528534
0.29649001 0.041542999 -1.0867 4289528534
0.27862999 0.042562 -1.0852 4289528534
0.27954 0.042463001 -1.0827 4289528534
0.28193 0.042509999 -1.0839 4289528534
0.28432 0.042557001 -1.0851001 4289528534
0.28597 0.042530999 -1.0845 4289528534
0.29280999 0.042633001 -1.0871 4289528534
0.29407001 0.042569999 -1.0855 4289528534
0.29495001 0.042470999 -1.0829 4289528534
0.29813999 0.042587999 -1.0858999 4289528534
0.29978999 0.042560998 -1.0852 4289528534
0.3026 0.042642001 -1.0872999 4289528534
0.30464 0.042651001 -1.0875 4289528534
0.27625 0.043570001 -1.084 4289528534
0.27789 0.043543998 -1.0833 4289528534
0.27954 0.043517999 -1.0827 4289528534
0.28266999 0.043639999 -1.0857 4289528534
0.28799 0.043597002 -1.0847 4289528534
0.29001999 0.043607 -1.0849 4289528534
0.29242 0.043653999 -1.0861 4289528534
0.29446 0.043664001 -1.0863 4289528534
0.29649001 0.043674 -1.0865999 4289528534
0.29813999 0.043646 -1.0858999 4289528534
0.30017 0.043655001 -1.0861 4289528534
0.30221 0.043664001 -1.0863 4289528534
0.30464 0.043710001 -1.0875 4289528534
0.30746999 0.043793 -1.0895 4289528534
0.27752 0.044589002 -1.0824 4289528534
0.28027999 0.044677 -1.0845 4289528534
0.2823 0.044688001 -1.0848 4289528534
0.28432 0.044698 -1.085 4289528534
0.28634 0.044709001 -1.0853 4289528534
0.28760999 0.044643 -1.0836999 4289528534
0.28964001 0.044654001 -1.084 4289528534
0.29203999 0.044702001 -1.0851001 4289528534
0.29484001 0.044787999 -1.0872 4289528534
0.29686999 0.044798002 -1.0875 4289528534
0.29978999 0.044702999 -1.0851001 4289528534
0.30066001 0.044599 -1.0826 4289528534
0.30307999 0.044645999 -1.0838 4289528534
0.30708 0.044844002 -1.0886 4289528534
0.30913001 0.044853002 -1.0888 4289528534
0.27752 0.045699 -1.0822999 4289528534
0.28027999 0.045789 -1.0845 4289528534
0.28193 0.045761 -1.0838 4289528534
0.28356999 0.045733001 -1.0831 4289528534
0.28597 0.045782998 -1.0843 4289528534
0.28837001 0.045832999 -1.0855 4289528534
0.28964001 0.045765001 -1.0839 4289528534
0.29203999 0.045814998 -1.0851001 4289528534
0.29521999 0.045942001 -1.0881 4289528534
0.30017 0.045855001 -1.086 4289528534
0.30386001 0.045835 -1.0856 4289528534
0.30834001 0.045892 -1.0869 4289528534
0.31408 0.045878999 -1.0865999 4289528534
0.27789 0.046842001 -1.0832 4289528534
0.28064999 0.046934001 -1.0853 4289528534
0.28081 0.046744999 -1.081 4289528534
0.28207001 0.046675999 -1.0793999 4289528534
0.28558999 0.046847999 -1.0833 4289528534
0.28874999 0.046978999 -1.0864 4289528534
0.29078001 0.04699 -1.0865999 4289528534
0.29242 0.04696 -1.086 4289528534
0.29446 0.046971001 -1.0862 4289528534
0.29572001 0.046900999 -1.0846 4289528534
0.30056 0.047001 -1.0869 4289528534
0.30464 0.047021002 -1.0872999 4289528534
0.30636999 0.046801001 -1.0822999 4289528534
0.31448001 0.047026001 -1.0875 4289528534
0.27752 0.047897 -1.0822001 4289528534
0.28027999 0.047991998 -1.0844001 4289528534
0.2823 0.048002999 -1.0846 4289528534
0.28760999 0.047956001 -1.0836 4289528534
0.2904 0.048048999 -1.0857 4289528534
0.29166001 0.047977999 -1.0841 4289528534
0.29369 0.047989 -1.0843 4289528534
0.29457 0.047876999 -1.0818 4289528534
0.29736999 0.047968999 -1.0839 4289528534
0.30221 0.048071001 -1.0862 4289528534
0.30464 0.048122 -1.0872999 4289528534
0.30794001 0.048059002 -1.0858999 4289528534
0.31327999 0.048005 -1.0847 4289528534
0.31492999 0.047974002 -1.084 4289528534
0.27678999 0.048923001 -1.0803 4289528534
0.28193 0.049074002 -1.0836999 4289528534
0.29128 0.049047999 -1.0831 4289528534
0.29369 0.049100999 -1.0843 4289528534
0.29572001 0.049112 -1.0845 4289528534
0.29697999 0.049038999 -1.0829 4289528534
0.30669001 0.049245998 -1.0875 4289528534
0.30919999 0.049098998 -1.0842 4289528534
0.27825999 0.050216999 -1.084 4289528534
0.27991 0.050186999 -1.0833 4289528534
0.28154999 0.050156001 -1.0827 4289528534
0.28850001 0.050074998 -1.0809 4289528534
0.29775 0.050248999 -1.0847 4289528534
0.31373 0.050083999 -1.0811 4289528534
0.28081 0.051176 -1.0808001 4289528534
