# .PCD v0.7 - Point Cloud Data file format
VERSION 0.7
FIELDS x y z rgb
SIZE 4 4 4 4
TYPE F F F U
COUNT 1 1 1 1
WIDTH 91
HEIGHT 1
VIEWPOINT 0 0 0 1 0 0 0
POINTS 91
DATA ascii
-0.045322001 -0.68421 -1.1938 4285717430
-0.047515001 -0.68216997 -1.1939 4285717430
-0.045279998 -0.68311 -1.1956 4285717430
-0.045237999 -0.6832 -1.1967 4285717430
-0.043168001 -0.68216002 -1.1949 4285717430
-0.045279998 -0.68228 -1.1961 4285717430
-0.036660001 -0.68208998 -1.1957 4285717430
-0.045237999 -0.68237001 -1.1971999 4285717430
-0.043081 -0.68233001 -1.1971 4285717430
-0.032246001 -0.68256003 -1.1975 4285717430
-0.045196 -0.68246001 -1.1983 4285717430
-0.032194 -0.68265003 -1.1986001 4285717430
-0.030034 -0.68260002 -1.1985 4285717430
-0.023735 -0.68093002 -1.1956 4285717430
-0.045196 -0.68206 -1.1985 4285717430
-0.036660001 -0.68088001 -1.1964 4285717430
-0.034403998 -0.68181002 -1.1981 4285717430
-0.032350998 -0.68076998 -1.1962 4285717430
-0.030143 -0.68120003 -1.197 4285717430
-0.027987 -0.68115002 -1.1969 4285717430
-0.025774 -0.68158001 -1.1977 4285717430
-0.023498001 -0.6825 -1.1993001 4285717430
-0.045237999 -0.68115997 -1.1979001 4285717430
-0.040833 -0.68204999 -1.1993999 4285717430
-0.038720001 -0.68150997 -1.1985 4285717430
-0.036561999 -0.68146002 -1.1984 4285717430
-0.034352999 -0.68190002 -1.1992 4285717430
-0.032194 -0.68184 -1.1991 4285717430
-0.030197 -0.68031001 -1.1964 4285717430
-0.025715999 -0.68167001 -1.1988 4285717430
-0.023438999 -0.68259001 -1.2004 4285717430
-0.038814001 -0.68010998 -1.197 4285717430
-0.036561999 -0.68103999 -1.1986001 4285717430
-0.034352999 -0.68147999 -1.1993999 4285717430
-0.032194 -0.68142998 -1.1993001 4285717430
-0.030143 -0.68037999 -1.1975 4285717430
-0.025715999 -0.68124998 -1.199 4285717430
-0.038672999 -0.68115997 -1.1998 4285717430
-0.036416002 -0.6821 -1.2015001 4285717430
-0.034251999 -0.68204999 -1.2014 4285717430
-0.032194 -0.68101001 -1.1995 4285717430
-0.030034 -0.68094999 -1.1993999 4285717430
-0.027875001 -0.68089002 -1.1993001 4285717430
-0.038578998 -0.68167001 -1.2018 4285717430
-0.036513001 -0.68063998 -1.2 4285717430
-0.034352999 -0.68058002 -1.1999 4285717430
-0.032246001 -0.68004 -1.1989 4285717430
-0.030034 -0.68046999 -1.1997 4285717430
-0.027819 -0.68090999 -1.2005 4285717430
-0.025544001 -0.68182999 -1.2021 4285717430
-0.023498001 -0.68077999 -1.2003 4285717430
-0.038720001 -0.67970997 -1.1995 4285717430
-0.036463998 -0.68065 -1.2011 4285717430
-0.032141998 -0.68054003 -1.201 4285717430
-0.02998 -0.68048 -1.2009 4285717430
-0.027819 -0.68041998 -1.2007999 4285717430
-0.023557 -0.67980999 -1.1997 4285717430
-0.038672999 -0.67969 -1.2007 4285717430
-0.036416002 -0.68063003 -1.2023 4285717430
-0.034352999 -0.67958999 -1.2005 4285717430
-0.032194 -0.67953998 -1.2004 4285717430
-0.027764 -0.68040001 -1.2019 4285717430
-0.038720001 -0.67869002 -1.2000999 4285717430
-0.036366999 -0.68059999 -1.2035 4285717430
-0.034302998 -0.67957002 -1.2016 4285717430
-0.032246001 -0.67852998 -1.1998 4285717430
-0.030143 -0.67798001 -1.1988 4285717430
-0.027930999 -0.67840999 -1.1996 4285717430
-0.036463998 -0.67908001 -1.202 4285717430
-0.034403998 -0.67804998 -1.2002 4285717430
-0.032246001 -0.67799002 -1.2000999 4285717430
-0.023616999 -0.67774999 -1.1997 4285717430
-0.034302998 -0.67848998 -1.2022001 4285717430
-0.032141998 -0.67843002 -1.2021 4285717430
-0.027764 -0.67881 -1.2028 4285717430
-0.040924001 -0.67668003 -1.2002 4285717430
-0.038720001 -0.67711997 -1.201 4285717430
-0.036416002 -0.67853999 -1.2035 4285717430
-0.034251999 -0.67848998 -1.2034 4285717430
-0.032088999 -0.67843002 -1.2033 4285717430
-0.029872 -0.67886001 -1.2041 4285717430
-0.027819 -0.67782998 -1.2022001 4285717430
-0.040924001 -0.67619002 -1.2005 4285717430
-0.036318 -0.67903 -1.2055 4285717430
-0.034251999 -0.67799997 -1.2036999 4285717430
-0.031985 -0.67891997 -1.2053 4285717430
-0.036269002 -0.67891997 -1.2067 4285717430
-0.034100998 -0.67887002 -1.2066 4285717430
-0.031932 -0.67881 -1.2065001 4285717430
-0.036318 -0.67782003 -1.2062 4285717430
-0.031985 -0.67771 -1.206 4285717430
