# .PCD v0.7 - Point Cloud Data file format
VERSION 0.7
FIELDS x y z rgb
SIZE 4 4 4 4
TYPE F F F U
COUNT 1 1 1 1
WIDTH 112
HEIGHT 1
VIEWPOINT 0 0 0 1 0 0 0
POINTS 112
DATA ascii
-0.69964999 -0.19405 -1.1614 4290306523
-0.69783998 -0.19423001 -1.1624 4290306523
-0.69964999 -0.19283 -1.1616 4290306523
-0.69834 -0.19315 -1.1634001 4290306523
-0.70045 -0.19114 -1.159 4290306523
-0.69814003 -0.19117001 -1.1592 4290306523
-0.69994003 -0.18996 -1.1583 4290306523
-0.69814003 -0.19013 -1.1594 4290306523
-0.69634002 -0.1903 -1.1604 4290306523
-0.69502997 -0.19061001 -1.1623 4290306523
-0.69222999 -0.19050001 -1.1616 4290306523
-0.70124 -0.18842 -1.1566 4290306523
-0.70045 -0.18886 -1.1594 4290306523
-0.69634002 -0.18906 -1.1605999 4290306523
-0.69453001 -0.18923 -1.1616 4290306523
-0.68120998 -0.18953 -1.1635 4290306523
-0.70275003 -0.1877 -1.1594 4290306523
-0.69863999 -0.18790001 -1.1605999 4290306523
-0.69634002 -0.18793 -1.1608 4290306523
-0.69453001 -0.1881 -1.1618 4290306523
-0.69273001 -0.18826 -1.1629 4290306523
-0.68992001 -0.18815 -1.1622 4290306523
-0.68761998 -0.18818 -1.1623 4290306523
-0.70275003 -0.18668 -1.1595 4290306523
-0.69634002 -0.18691 -1.161 4290306523
-0.69453001 -0.18707 -1.1619999 4290306523
-0.69273001 -0.18724 -1.163 4290306523
-0.68992001 -0.18713 -1.1623 4290306523
-0.68761998 -0.18716 -1.1625 4290306523
-0.68432999 -0.1869 -1.1609 4290306523
-0.68105 -0.18664999 -1.1594 4290306523
-0.68023002 -0.18708999 -1.1621 4290306523
-0.70455998 -0.18525 -1.1587 4290306523
-0.70225 -0.18528 -1.1589 4290306523
-0.69843 -0.1849 -1.1565 4290306523
-0.69612998 -0.18493 -1.1567 4290306523
-0.69432998 -0.1851 -1.1576999 4290306523
-0.69203001 -0.18512 -1.1579 4290306523
-0.69072998 -0.18542001 -1.1598001 4290306523
-0.68694001 -0.18504 -1.1574 4290306523
-0.68532002 -0.18591 -1.1629 4290306523
-0.68203002 -0.18566 -1.1612999 4290306523
-0.70354003 -0.18381999 -1.1572 4290306523
-0.70174003 -0.18399 -1.1582 4290306523
-0.69843 -0.18375 -1.1567 4290306523
-0.69563001 -0.18364 -1.156 4290306523
-0.69383001 -0.1838 -1.1571 4290306523
-0.69103003 -0.18369 -1.1564 4290306523
-0.68923998 -0.18386 -1.1574 4290306523
-0.68694001 -0.18388 -1.1576 4290306523
-0.68432999 -0.18448 -1.1612999 4290306523
-0.68251997 -0.18464001 -1.1623 4290306523
-0.70302999 -0.18266 -1.1565 4290306523
-0.70124 -0.18283001 -1.1575 4290306523
-0.69893003 -0.18286 -1.1576999 4290306523
-0.69764 -0.18316001 -1.1596 4290306523
-0.69383001 -0.18278 -1.1572 4290306523
-0.69103003 -0.18267 -1.1566 4290306523
-0.68874002 -0.18269999 -1.1567 4290306523
-0.68643999 -0.18272001 -1.1569 4290306523
-0.68612999 -0.18329 -1.1605 4290306523
-0.70354003 -0.18155999 -1.1575 4290306523
-0.70124 -0.18159001 -1.1576999 4290306523
-0.69742 -0.18122 -1.1554 4290306523
-0.69764 -0.18190999 -1.1598001 4290306523
-0.69383001 -0.18154 -1.1574 4290306523
-0.69152999 -0.18156999 -1.1576 4290306523
-0.68823999 -0.18132 -1.1561 4290306523
-0.68694001 -0.18162 -1.1579 4290306523
-0.68712002 -0.18232 -1.1624 4290306523
-0.69511998 -0.18020999 -1.1557 4290306523
-0.69383001 -0.18051 -1.1576 4290306523
-0.69353002 -0.18107 -1.1612 4290306523
-0.68972999 -0.18069001 -1.1588 4290306523
-0.68792999 -0.18085 -1.1598001 4290306523
-0.68563998 -0.18088 -1.16 4290306523
-0.70151001 -0.17884 -1.1545 4290306523
-0.69972003 -0.17900001 -1.1555001 4290306523
-0.69691998 -0.1789 -1.1549 4290306523
-0.69383001 -0.17935 -1.1578 4290306523
-0.69203001 -0.17951 -1.1588 4290306523
-0.68972999 -0.17953999 -1.159 4290306523
-0.68743998 -0.17956001 -1.1591001 4290306523
-0.70151001 -0.17768 -1.1547 4290306523
-0.69769001 -0.17731 -1.1523 4290306523
-0.69691998 -0.17773999 -1.155 4290306523
-0.69462001 -0.17776 -1.1552 4290306523
-0.69332999 -0.17805 -1.1571 4290306523
-0.69103003 -0.17808001 -1.1573 4290306523
-0.68972999 -0.17837 -1.1591001 4290306523
-0.68494999 -0.17772999 -1.155 4290306523
-0.69718999 -0.1759 -1.1516 4290306523
-0.69641 -0.17632 -1.1544 4290306523
-0.69411999 -0.17635 -1.1546 4290306523
-0.69283003 -0.17663001 -1.1564 4290306523
-0.68494999 -0.17645 -1.1552 4290306523
-0.69948 -0.17486 -1.1516 4290306523
-0.69769001 -0.17501999 -1.1526 4290306523
-0.6954 -0.17504001 -1.1528 4290306523
-0.69361001 -0.1752 -1.1539 4290306523
-0.68545002 -0.17556 -1.1562001 4290306523
-0.69897002 -0.17362 -1.1509 4290306523
-0.69718999 -0.17377999 -1.152 4290306523
-0.69489998 -0.17381001 -1.1521 4290306523
-0.68445998 -0.17419 -1.1547 4290306523
-0.69819999 -0.17288999 -1.1538 4290306523
-0.69590998 -0.17292 -1.154 4290306523
-0.69411999 -0.17307 -1.1551 4290306523
-0.69897002 -0.17132001 -1.1513 4290306523
-0.69718999 -0.17147 -1.1523 4290306523
-0.6954 -0.17162 -1.1533 4290306523
-0.69411999 -0.17191 -1.1552 4290306523
