# .PCD v0.7 - Point Cloud Data file format
VERSION 0.7
FIELDS x y z rgb
SIZE 4 4 4 4
TYPE F F F U
COUNT 1 1 1 1
WIDTH 91
HEIGHT 1
VIEWPOINT 0 0 0 1 0 0 0
POINTS 91
DATA ascii
-0.12724 0.37865999 -1.3246 4285402475
-0.12909999 0.37579 -1.314 4285402475
-0.12729 0.37937999 -1.3265001 4285402475
-0.12908 0.37564999 -1.313 4285402475
-0.12730999 0.37979001 -1.3274 4285402475
-0.12905 0.37549999 -1.312 4285402475
-0.12738 0.38073999 -1.3303 4285402475
-0.12895 0.37450001 -1.3081 4285402475
-0.12726 0.37946999 -1.3254 4285402475
-0.12908 0.37597999 -1.3128999 4285402475
-0.12704 0.37709001 -1.3168 4285402475
-0.12918 0.37716001 -1.3167 4285402475
-0.12704 0.37718001 -1.3167 4285402475
-0.12524 0.38132 -1.3312 4285402475
-0.12918 0.37724999 -1.3167 4285402475
-0.12714 0.37836999 -1.3206 4285402475
-0.12716 0.37873 -1.3214999 4285402475
-0.12721001 0.37935999 -1.3234 4285402475
-0.12513 0.3802 -1.3263 4285402475
-0.12958001 0.38158 -1.331 4285402475
-0.12740999 0.38159999 -1.3311 4285402475
-0.12931 0.37886 -1.3214 4285402475
-0.12740999 0.38163 -1.3311 4285402475
-0.12714 0.37860999 -1.3205 4285402475
-0.12526 0.38192999 -1.3321 4285402475
-0.12929 0.37860999 -1.3204 4285402475
-0.12714 0.37862 -1.3205 4285402475
-0.12903 0.37584999 -1.3108 4285402475
-0.12711 0.37834999 -1.3195 4285402475
-0.12709001 0.37808001 -1.3186001 4285402475
-0.12501 0.37891999 -1.3214999 4285402475
-0.12714 0.37865001 -1.3205 4285402475
-0.1251 0.38005 -1.3253 4285402475
-0.12709001 0.37810999 -1.3186001 4285402475
-0.12908 0.37643999 -1.3127 4285402475
-0.12718999 0.37921 -1.3224 4285402475
-0.12699001 0.37700999 -1.3147 4285402475
-0.12905 0.37616 -1.3118 4285402475
-0.12918 0.37753999 -1.3166 4285402475
-0.12692 0.37617999 -1.3118 4285402475
-0.12522 0.38143 -1.3301001 4285402475
-0.12730999 0.38058999 -1.3272001 4285402475
-0.12696999 0.37673 -1.3138 4285402475
-0.12729 0.38031 -1.3262 4285402475
-0.12926 0.37836999 -1.3195 4285402475
-0.12714 0.37865999 -1.3205 4285402475
-0.12921 0.37781999 -1.3175 4285402475
-0.12499 0.37867001 -1.3205 4285402475
-0.12903 0.37588999 -1.3108 4285402475
-0.12508 0.37977999 -1.3243999 4285402475
-0.12738 0.38141 -1.3301001 4285402475
-0.12515 0.38060001 -1.3273 4285402475
-0.12711 0.37838 -1.3195 4285402475
-0.12895 0.37505999 -1.3079 4285402475
-0.12503 0.37922001 -1.3225 4285402475
-0.12899999 0.37560999 -1.3099 4285402475
-0.12517001 0.38088 -1.3282 4285402475
-0.12897 0.37534001 -1.3089 4285402475
-0.12535 0.38308001 -1.3358999 4285402475
-0.12892 0.37479001 -1.307 4285402475
-0.12506001 0.3795 -1.3234 4285402475
-0.12942 0.38001999 -1.3252 4285402475
-0.12916 0.37727001 -1.3156 4285402475
-0.12724 0.37976 -1.3243001 4285402475
-0.12721001 0.37948999 -1.3234 4285402475
-0.12519 0.38115001 -1.3292 4285402475
-0.12733001 0.38086 -1.3282 4285402475
-0.12706999 0.37783 -1.3176 4285402475
-0.12929 0.37864 -1.3204 4285402475
-0.12931 0.37891999 -1.3214 4285402475
-0.12913001 0.37698999 -1.3147 4285402475
-0.12531 0.38253 -1.334 4285402475
-0.12944999 0.38029999 -1.3262 4285402475
-0.12704 0.37755999 -1.3166 4285402475
-0.12513 0.38033 -1.3263 4285402475
-0.12702 0.37728 -1.3157001 4285402475
-0.12501 0.37895 -1.3214999 4285402475
-0.12947001 0.38056999 -1.3272001 4285402475
-0.12740999 0.38169 -1.3311 4285402475
-0.1295 0.38084999 -1.3281 4285402475
-0.12937 0.37946999 -1.3233 4285402475
-0.12533 0.38281 -1.3349 4285402475
-0.12526 0.38198 -1.3321 4285402475
-0.12909999 0.37671 -1.3137 4285402475
-0.12933999 0.37919 -1.3224 4285402475
-0.12736 0.38113999 -1.3291 4285402475
-0.12924001 0.37808999 -1.3185 4285402475
-0.12527999 0.38225999 -1.3329999 4285402475
-0.12524 0.38170001 -1.3311 4285402475
-0.12716 0.37893 -1.3214 4285402475
-0.12726 0.38003999 -1.3253 4285402475
