# .PCD v0.7 - Point Cloud Data file format
VERSION 0.7
FIELDS x y z rgb
SIZE 4 4 4 4
TYPE F F F U
COUNT 1 1 1 1
WIDTH 59
HEIGHT 1
VIEWPOINT 0 0 0 1 0 0 0
POINTS 59
DATA ascii
-0.82800001 -0.60456002 -1.3238 4278782416
-0.82653999 -0.60213 -1.322 4278782416
-0.82426 -0.60266 -1.3232 4278782416
-0.82800001 -0.60188001 -1.325 4278782416
-0.82618999 -0.60276997 -1.327 4278782416
-0.83225 -0.60145003 -1.3277 4278782416
-0.83140999 -0.60306001 -1.3312 4278782416
-0.82668 -0.60178 -1.3284 4278782416
-0.82765001 -0.60118002 -1.3306 4278782416
-0.82910001 -0.60092002 -1.3336 4278782416
-0.82679999 -0.60145003 -1.3347 4278782416
-0.83384001 -0.60086 -1.337 4278782416
-0.82910001 -0.59959 -1.3342 4278782416
-0.82582998 -0.59938997 -1.3338 4278782416
-0.83287001 -0.5988 -1.336 4278782416
-0.83433002 -0.59854001 -1.339 4278782416
-0.83810002 -0.59773999 -1.3408 4278782416
-0.83578002 -0.59827 -1.342 4278782416
-0.83335 -0.59514999 -1.3386 4278782416
-0.83433002 -0.59451997 -1.3408 4278782416
-0.83200997 -0.59504002 -1.342 4278782416
-0.83810002 -0.59375 -1.3426 4278782416
-0.83626997 -0.59461999 -1.3446 4278782416
-0.83394998 -0.59514999 -1.3457 4278782416
-0.83578002 -0.59296 -1.3443 4278782416
-0.83541 -0.59489 -1.3487 4278782416
-0.83919001 -0.59407002 -1.3505 4278782416
-0.84004998 -0.59113002 -1.3476 4278782416
-0.8387 -0.59235001 -1.3503 4278782416
-0.83638 -0.59287 -1.3515 4278782416
-0.83664 -0.58739001 -1.3425 4278782416
-0.83822 -0.59070998 -1.3501 4278782416
-0.83589 -0.59122002 -1.3513 4278782416
-0.83712 -0.58645999 -1.3439 4278782416
-0.83822 -0.58942002 -1.3507 4278782416
-0.83589 -0.58994001 -1.3519 4278782416
-0.84249002 -0.58893001 -1.3533 4278782416
-0.83968002 -0.5891 -1.3537 4278782416
-0.84346998 -0.58824003 -1.3555 4278782416
-0.84162003 -0.5891 -1.3575 4278782416
-0.84443998 -0.58753997 -1.3577 4278782416
-0.84258997 -0.58841002 -1.3597 4278782416
-0.84628999 -0.58529001 -1.3563 4278782416
-0.84492999 -0.58649999 -1.3591 4278782416
-0.84258997 -0.58701003 -1.3602999 4278782416
-0.84394997 -0.58449 -1.3581001 4278782416
-0.84258997 -0.58569002 -1.3609 4278782416
-0.84492999 -0.58385998 -1.3602 4278782416
-0.84404999 -0.58541 -1.3638 4278782416
-0.84433001 -0.57990003 -1.3548 4278782416
-0.84542 -0.58282 -1.3616 4278782416
-0.84356999 -0.58367002 -1.3636 4278782416
-0.84551001 -0.58363003 -1.3674001 4278782416
-0.84600002 -0.58257997 -1.3688 4278782416
-0.84364998 -0.58309001 -1.37 4278782416
-0.84834999 -0.58068001 -1.3681999 4278782416
-0.84600002 -0.58118999 -1.3694 4278782416
-0.84882998 -0.57977003 -1.3696001 4278782416
-0.84981 -0.57776999 -1.3723 4278782416
