# .PCD v0.7 - Point Cloud Data file format
VERSION 0.7
FIELDS x y z rgb
SIZE 4 4 4 4
TYPE F F F U
COUNT 1 1 1 1
WIDTH 53
HEIGHT 1
VIEWPOINT 0 0 0 1 0 0 0
POINTS 53
DATA ascii
-0.12254 -0.60383999 -1.3401 4291798322
-0.12252 -0.60209 -1.3398 4291798322
-0.12483 -0.60073 -1.3403 4291798322
-0.12254 -0.60115999 -1.3413 4291798322
-0.12022 -0.60118002 -1.3413 4291798322
-0.11793 -0.60201001 -1.3432 4291798322
-0.12487 -0.60021001 -1.3427 4291798322
-0.12259 -0.60104001 -1.3446 4291798322
-0.12027 -0.60105997 -1.3446 4291798322
-0.11801 -0.60271001 -1.3483 4291798322
-0.12259 -0.59969997 -1.3451999 4291798322
-0.12029 -0.60012001 -1.3462 4291798322
-0.11804 -0.60216999 -1.3508 4291798322
-0.11569 -0.60178 -1.3499 4291798322
-0.11336 -0.60179001 -1.3499 4291798322
-0.12031 -0.59917998 -1.3477 4291798322
-0.11801 -0.60000998 -1.3494999 4291798322
-0.11568 -0.60003 -1.3496 4291798322
-0.12032 -0.59824002 -1.3492 4291798322
-0.11799 -0.59825999 -1.3492 4291798322
-0.11567 -0.59827 -1.3492 4291798322
-0.11335 -0.59868997 -1.3502001 4291798322
-0.11799 -0.59693998 -1.3498 4291798322
-0.11567 -0.59694999 -1.3498 4291798322
-0.11336 -0.59776998 -1.3516999 4291798322
-0.11801 -0.59603 -1.3513 4291798322
-0.11341 -0.59807003 -1.3559 4291798322
-0.12034 -0.59464997 -1.3519 4291798322
-0.11801 -0.59467 -1.3519 4291798322
-0.11568 -0.59468001 -1.3519 4291798322
-0.11339 -0.5959 -1.3547 4291798322
-0.11807 -0.59490001 -1.3562 4291798322
-0.11342 -0.59573001 -1.3581001 4291798322
-0.11109 -0.59614003 -1.359 4291798322
-0.12039 -0.59319001 -1.3558 4291798322
-0.11806 -0.59320003 -1.3558 4291798322
-0.11575 -0.59402001 -1.3577 4291798322
-0.11342 -0.59443003 -1.3586 4291798322
-0.1181 -0.59311002 -1.3591 4291798322
-0.11575 -0.59271997 -1.3582 4291798322
-0.11341 -0.59274 -1.3583 4291798322
-0.11812 -0.59214002 -1.3606 4291798322
-0.11578 -0.59214997 -1.3607 4291798322
-0.12046 -0.59073001 -1.3612 4291798322
-0.11812 -0.59074003 -1.3612 4291798322
-0.11578 -0.59075999 -1.3613 4291798322
-0.11349 -0.59236002 -1.365 4291798322
-0.11112 -0.59157002 -1.3631999 4291798322
-0.12046 -0.58933002 -1.3618 4291798322
-0.1181 -0.58894998 -1.3609 4291798322
-0.11576 -0.58895999 -1.3609999 4291798322
-0.11342 -0.58897001 -1.3609999 4291798322
-0.11109 -0.58938003 -1.3619 4291798322
