# .PCD v0.7 - Point Cloud Data file format
VERSION 0.7
FIELDS x y z rgb
SIZE 4 4 4 4
TYPE F F F U
COUNT 1 1 1 1
WIDTH 60
HEIGHT 1
VIEWPOINT 0 0 0 1 0 0 0
POINTS 60
DATA ascii
-0.61448997 0.0077662002 -1.0717 4281832998
-0.61659998 0.0087305 -1.0717 4281832998
-0.61497998 0.0087377997 -1.0726 4281832998
-0.61334997 0.0087452 -1.0735 4281832998
-0.61659998 0.0099692 -1.0717 4281832998
-0.61594999 0.0099938996 -1.0743001 4281832998
-0.61431998 0.010002 -1.0752 4281832998
-0.61220998 0.010003 -1.0753 4281832998
-0.61659998 0.011141 -1.0717 4281832998
-0.61497998 0.01115 -1.0726 4281832998
-0.61238003 0.011141 -1.0717 4281832998
-0.61075997 0.011151 -1.0726 4281832998
-0.61984003 0.012084 -1.0698 4281832998
-0.61773002 0.012084 -1.0699 4281832998
-0.61611003 0.012094 -1.0707999 4281832998
-0.61448997 0.012105 -1.0717 4281832998
-0.61189997 0.012095 -1.0707999 4281832998
-0.62032998 0.013113 -1.0707 4281832998
-0.61675 0.013081 -1.0681 4281832998
-0.61611003 0.013114 -1.0707999 4281832998
-0.61497998 0.013135 -1.0725 4281832998
-0.61141002 0.013104 -1.0699 4281832998
-0.6268 0.014102 -1.067 4281832998
-0.62243998 0.01415 -1.0706 4281832998
-0.62131 0.014173 -1.0724 4281832998
-0.61773002 0.014139 -1.0698 4281832998
-0.61562002 0.01414 -1.0699 4281832998
-0.61352003 0.01414 -1.0699 4281832998
-0.61141002 0.014141 -1.0699 4281832998
-0.6268 0.015154 -1.067 4281832998
-0.62419999 0.015143 -1.0662 4281832998
-0.62257999 0.015156 -1.0671 4281832998
-0.62243998 0.015206 -1.0706 4281832998
-0.62131 0.015231 -1.0724 4281832998
-0.61576998 0.015145 -1.0663 4281832998
-0.61416 0.015158 -1.0671999 4281832998
-0.61352003 0.015196 -1.0699 4281832998
-0.61189997 0.015209 -1.0707999 4281832998
-0.62791997 0.016229 -1.0652 4281832998
-0.62730002 0.01627 -1.0678 4281832998
-0.62469 0.016256999 -1.067 4281832998
-0.62308002 0.016271001 -1.0678999 4281832998
-0.62046999 0.016259 -1.0671 4281832998
-0.61837 0.01626 -1.0671999 4281832998
-0.61576998 0.016247001 -1.0663 4281832998
-0.61465001 0.016274 -1.0681 4281832998
-0.61303002 0.016287999 -1.069 4281832998
-0.62667 0.017581001 -1.0705 4281832998
-0.62257999 0.017525 -1.0671 4281832998
-0.61900002 0.017483 -1.0645 4281832998
-0.61837 0.017526999 -1.0671 4281832998
-0.61675 0.017542001 -1.068 4281832998
-0.61562002 0.017571 -1.0698 4281832998
-0.61303002 0.017557001 -1.069 4281832998
-0.62842 0.018493 -1.066 4281832998
-0.62617999 0.018555 -1.0696 4281832998
-0.62257999 0.018510999 -1.067 4281832998
-0.61900002 0.018466 -1.0645 4281832998
-0.61886001 0.018526999 -1.068 4281832998
-0.61576998 0.018498 -1.0663 4281832998
