# .PCD v0.7 - Point Cloud Data file format
VERSION 0.7
FIELDS x y z rgb
SIZE 4 4 4 4
TYPE F F F U
COUNT 1 1 1 1
WIDTH 108
HEIGHT 1
VIEWPOINT 0 0 0 1 0 0 0
POINTS 108
DATA ascii
0.33322001 0.0092182001 -1.1316 4289748737
0.32843 0.010556 -1.1346999 4289748737
0.33149001 0.010533 -1.1323 4289748737
0.33322001 0.010526 -1.1315 4289748737
0.33401999 0.012801 -1.1334 4289748737
0.33575001 0.012793 -1.1325999 4289748737
0.33362001 0.013869 -1.1324 4289748737
0.33535001 0.01386 -1.1317 4289748737
0.33706999 0.01385 -1.1309 4289748737
0.33880001 0.013841 -1.1302 4289748737
0.33202001 0.014918 -1.1287 4289748737
0.33454999 0.014932 -1.1298 4289748737
0.33787999 0.014971 -1.1327 4289748737
0.33919999 0.014948 -1.1311001 4289748737
0.34103 0.01488 -1.1259 4289748737
0.32646 0.01605 -1.13 4289748737
0.33335 0.016008001 -1.1271 4289748737
0.33506 0.015997 -1.1263 4289748737
0.33961001 0.016077001 -1.132 4289748737
0.34213999 0.016092001 -1.133 4289748737
0.32356 0.017186999 -1.128 4289748737
0.32528001 0.017175 -1.1273 4289748737
0.32738999 0.017178001 -1.1274 4289748737
0.3299 0.017194999 -1.1285 4289748737
0.33495 0.017228 -1.1307 4289748737
0.33627 0.017201999 -1.1289999 4289748737
0.33798999 0.017191 -1.1283 4289748737
0.34051999 0.017207 -1.1293 4289748737
0.32356 0.018526001 -1.128 4289748737
0.32567 0.018529 -1.1282001 4289748737
0.32738999 0.018517001 -1.1274 4289748737
0.32951 0.018519999 -1.1276 4289748737
0.33706999 0.018572999 -1.1308 4289748737
0.33798999 0.01853 -1.1283 4289748737
0.34011999 0.018533001 -1.1284 4289748737
0.34184 0.018519999 -1.1276 4289748737
0.32222 0.019595999 -1.1296 4289748737
0.32528001 0.019555001 -1.1272 4289748737
0.32699001 0.019541999 -1.1265 4289748737
0.3299 0.019577 -1.1285 4289748737
0.33123001 0.019548001 -1.1267999 4289748737
0.33335 0.019551 -1.127 4289748737
0.33627 0.019586001 -1.1289999 4289748737
0.33798999 0.019571999 -1.1282001 4289748737
0.34143001 0.019546 -1.1267 4289748737
0.32144001 0.020692 -1.1278 4289748737
0.32356 0.020695001 -1.1279 4289748737
0.32488 0.020664999 -1.1263 4289748737
0.32738999 0.020685 -1.1274 4289748737
0.32870999 0.020654 -1.1257 4289748737
0.33043 0.020640999 -1.125 4289748737
0.33254001 0.020644 -1.1252 4289748737
0.33546999 0.020679999 -1.1271 4289748737
0.33798999 0.0207 -1.1282001 4289748737
0.33930999 0.020669 -1.1265 4289748737
0.32394999 0.021817001 -1.1288 4289748737
0.32567 0.021802001 -1.1281 4289748737
0.32659999 0.021753 -1.1255 4289748737
0.33162999 0.021795001 -1.1277 4289748737
0.33375001 0.021798 -1.1279 4289748737
0.33587 0.021801 -1.128 4289748737
0.33759001 0.021787001 -1.1273 4289748737
0.34265 0.021828 -1.1294 4289748737
0.32356 0.022887001 -1.1279 4289748737
0.32528001 0.022871999 -1.1272 4289748737
0.32738999 0.022876 -1.1273 4289748737
0.32951 0.022879001 -1.1275001 4289748737
0.33162999 0.022883 -1.1277 4289748737
0.33294001 0.022848999 -1.126 4289748737
0.33386001 0.022797 -1.1234 4289748737
0.34051999 0.022914 -1.1292 4289748737
0.34184 0.022879999 -1.1276 4289748737
0.32738999 0.023976 -1.1273 4289748737
0.32951 0.023979001 -1.1275001 4289748737
0.33043 0.023924001 -1.1249 4289748737
0.33094001 0.02385 -1.1214 4289748737
0.33265001 0.023833999 -1.1207 4289748737
0.33798999 0.023993 -1.1282001 4289748737
0.33971 0.023977 -1.1274 4289748737
0.34020999 0.023902999 -1.1239001 4289748737
0.34152001 0.023867 -1.1222 4289748737
0.32699001 0.025067 -1.1264 4289748737
0.32911 0.025071001 -1.1266 4289748737
0.33083001 0.025055001 -1.1258 4289748737
0.33375001 0.025099 -1.1278 4289748737
0.33627 0.025123 -1.1289001 4289748737
0.33759001 0.025086001 -1.1272 4289748737
0.3389 0.025048999 -1.1255 4289748737
0.34062001 0.025032001 -1.1248 4289748737
0.34650999 0.025118999 -1.1287 4289748737
0.32870999 0.026161 -1.1256 4289748737
0.33043 0.026144 -1.1249 4289748737
0.33335 0.02619 -1.1269 4289748737
0.33506 0.026172999 -1.1260999 4289748737
0.33638 0.026133999 -1.1244 4289748737
0.33849999 0.026138 -1.1246001 4289748737
0.34020999 0.02612 -1.1238 4289748737
0.33506 0.027284 -1.1260999 4289748737
0.33678001 0.027265999 -1.1253 4289748737
0.33728001 0.027181 -1.1217999 4289748737
0.33981001 0.027207 -1.1229 4289748737
0.34274 0.027254 -1.1249 4289748737
0.33386001 0.028333001 -1.1233 4289748737
0.33717999 0.028406 -1.1262 4289748737
0.33728001 0.028294999 -1.1217999 4289748737
0.34020999 0.028345 -1.1238 4289748737
0.34193 0.028325001 -1.123 4289748737
0.33678001 0.029508 -1.1253 4289748737
