# .PCD v0.7 - Point Cloud Data file format
VERSION 0.7
FIELDS x y z rgb
SIZE 4 4 4 4
TYPE F F F U
COUNT 1 1 1 1
WIDTH 78
HEIGHT 1
VIEWPOINT 0 0 0 1 0 0 0
POINTS 78
DATA ascii
-0.48087001 -0.67395002 -1.2065001 4290296550
-0.48056999 -0.67276001 -1.2061 4290296550
-0.47841001 -0.67249 -1.207 4290296550
-0.47771001 -0.67453998 -1.2121 4290296550
-0.47929001 -0.67255998 -1.2103 4290296550
-0.47595 -0.67101997 -1.2075 4290296550
-0.479 -0.67135 -1.2098 4290296550
-0.47810999 -0.66921997 -1.2077 4290296550
-0.47624001 -0.67000997 -1.2092 4290296550
-0.47408 -0.67032999 -1.2097 4290296550
-0.47220001 -0.67110997 -1.2112 4290296550
-0.47003001 -0.67142999 -1.2117 4290296550
-0.47870001 -0.66940999 -1.2098 4290296550
-0.47740999 -0.67111999 -1.2129 4290296550
-0.47466001 -0.67050999 -1.2118 4290296550
-0.47277999 -0.67129999 -1.2132 4290296550
-0.47031999 -0.67115003 -1.2130001 4290296550
-0.46786001 -0.671 -1.2127 4290296550
-0.47712001 -0.66995001 -1.2125 4290296550
-0.47494999 -0.67027003 -1.2131 4290296550
-0.47277999 -0.67058998 -1.2136 4290296550
-0.46974999 -0.66951001 -1.2117 4290296550
-0.46757999 -0.66983002 -1.2122999 4290296550
-0.46511999 -0.66968 -1.212 4290296550
-0.46211001 -0.66859001 -1.21 4290296550
-0.48205 -0.66952002 -1.2134 4290296550
-0.47988001 -0.66983998 -1.214 4290296550
-0.47683001 -0.66878003 -1.212 4290296550
-0.47437 -0.66864002 -1.2118 4290296550
-0.47161999 -0.66803002 -1.2107 4290296550
-0.46946001 -0.66834003 -1.2112 4290296550
-0.46729001 -0.66865999 -1.2118 4290296550
-0.46483999 -0.66851002 -1.2115 4290296550
-0.46211001 -0.66789001 -1.2104 4290296550
-0.48392001 -0.66794997 -1.2124 4290296550
-0.48175001 -0.66826999 -1.2130001 4290296550
-0.47957999 -0.66859001 -1.2136 4290296550
-0.47683001 -0.66799003 -1.2125 4290296550
-0.47466001 -0.66830999 -1.2130001 4290296550
-0.47161999 -0.66724002 -1.2111 4290296550
-0.46946001 -0.66755998 -1.2117 4290296550
-0.46757999 -0.66833001 -1.2131 4290296550
-0.48392001 -0.66715997 -1.2128 4290296550
-0.48175001 -0.66747999 -1.2134 4290296550
-0.47957999 -0.66781002 -1.214 4290296550
-0.47740999 -0.66812998 -1.2146 4290296550
-0.47553 -0.66891003 -1.216 4290296550
-0.47277999 -0.66829997 -1.2149 4290296550
-0.47031999 -0.66816002 -1.2146 4290296550
-0.46814999 -0.66847003 -1.2151999 4290296550
-0.48322999 -0.66905999 -1.2180001 4290296550
-0.48106 -0.66939002 -1.2186 4290296550
-0.47771001 -0.66786999 -1.2158 4290296550
-0.47408 -0.66588002 -1.2122 4290296550
-0.47161999 -0.66574001 -1.2119 4290296550
-0.47031999 -0.66742998 -1.215 4290296550
-0.46814999 -0.66775 -1.2156 4290296550
-0.47929001 -0.66589999 -1.2139 4290296550
-0.47712001 -0.66622001 -1.2145 4290296550
-0.47523999 -0.667 -1.2158999 4290296550
-0.47249001 -0.66640002 -1.2148 4290296550
-0.47003001 -0.66624999 -1.2146 4290296550
-0.46757999 -0.66610003 -1.2143 4290296550
-0.48017001 -0.66639 -1.2169 4290296550
-0.47799999 -0.66671002 -1.2175 4290296550
-0.47611001 -0.66749001 -1.219 4290296550
-0.47307 -0.66643 -1.217 4290296550
-0.47887999 -0.66716999 -1.2205 4290296550
-0.47670001 -0.66749001 -1.2211 4290296550
-0.47365001 -0.66643 -1.2192 4290296550
-0.47088999 -0.66582 -1.2181 4290296550
-0.47828999 -0.66547 -1.2193 4290296550
-0.47582 -0.66532999 -1.219 4290296550
-0.47336 -0.66518998 -1.2187999 4290296550
-0.47088999 -0.66504002 -1.2185 4290296550
-0.46985999 -0.66719002 -1.2225 4290296550
-0.47336 -0.66439998 -1.2192 4290296550
-0.47060999 -0.6638 -1.2181 4290296550
