# .PCD v0.7 - Point Cloud Data file format
VERSION 0.7
FIELDS x y z rgb
SIZE 4 4 4 4
TYPE F F F U
COUNT 1 1 1 1
WIDTH 1161
HEIGHT 1
VIEWPOINT 0 0 0 1 0 0 0
POINTS 1161
DATA ascii
-0.69240999 -0.19938 -1.1647 4278293482
-0.69208002 -0.19999 -1.1683 4278293482
-0.68976003 -0.20002 -1.1684 4278293482
-0.68597001 -0.19960999 -1.166 4278293482
-0.71530002 -0.19864 -1.1665 4278293482
-0.71245998 -0.19853 -1.1659 4278293482
-0.70963001 -0.19842 -1.1653 4278293482
-0.70832002 -0.19875 -1.1672 4278293482
-0.70599997 -0.19878 -1.1674 4278293482
-0.70418 -0.19896001 -1.1684 4278293482
-0.70034999 -0.19856 -1.166 4278293482
-0.69652998 -0.19814999 -1.1637 4278293482
-0.69371998 -0.19803999 -1.163 4278293482
-0.69141001 -0.19807 -1.1632 4278293482
-0.68959999 -0.19824 -1.1641999 4278293482
-0.68976003 -0.199 -1.1686 4278293482
-0.68597001 -0.19859 -1.1662 4278293482
-0.72303998 -0.19815999 -1.1714 4278293482
-0.7166 -0.19705001 -1.1648 4278293482
-0.71428001 -0.19709 -1.1651 4278293482
-0.71144998 -0.19698 -1.1644 4278293482
-0.70911998 -0.19701999 -1.1646 4278293482
-0.70679998 -0.19705001 -1.1648 4278293482
-0.70447999 -0.19708 -1.165 4278293482
-0.70165998 -0.19697 -1.1644 4278293482
-0.69985002 -0.19715001 -1.1654 4278293482
-0.69752997 -0.19718 -1.1655999 4278293482
-0.69371998 -0.19677 -1.1632 4278293482
-0.69191003 -0.19695 -1.1641999 4278293482
-0.69010001 -0.19712 -1.1652 4278293482
-0.68877 -0.19744 -1.1671 4278293482
-0.71711999 -0.19602001 -1.1659 4278293482
-0.71376997 -0.19577999 -1.1644 4278293482
-0.71094 -0.19566999 -1.1638 4278293482
-0.70911998 -0.19585 -1.1648 4278293482
-0.70578998 -0.19559 -1.1633 4278293482
-0.70346999 -0.19563 -1.1635 4278293482
-0.70116001 -0.19566 -1.1637 4278293482
-0.69652998 -0.19572 -1.1641001 4278293482
-0.69371998 -0.19561 -1.1634001 4278293482
-0.69191003 -0.19577999 -1.1644 4278293482
-0.68861002 -0.19552 -1.1629 4278293482
-0.6868 -0.19569001 -1.1639 4278293482
-0.7166 -0.1947 -1.1652 4278293482
-0.71376997 -0.1946 -1.1646 4278293482
-0.71094 -0.19449 -1.164 4278293482
-0.70810997 -0.19438 -1.1633 4278293482
-0.70477998 -0.19413 -1.1618 4278293482
-0.69703001 -0.19468001 -1.1651 4278293482
-0.69422001 -0.19457 -1.1645 4278293482
-0.6929 -0.19487999 -1.1663001 4278293482
-0.69010001 -0.19476999 -1.1655999 4278293482
-0.68629998 -0.19437 -1.1632 4278293482
-0.71943998 -0.19358 -1.1661 4278293482
-0.71455997 -0.19292 -1.1621 4278293482
-0.71275002 -0.19309001 -1.1631 4278293482
-0.70991999 -0.19299001 -1.1625 4278293482
-0.7076 -0.19302 -1.1627001 4278293482
-0.70427001 -0.19277 -1.1612 4278293482
-0.70297003 -0.19307999 -1.1631 4278293482
-0.69422001 -0.19335 -1.1647 4278293482
-0.69141001 -0.19323 -1.164 4278293482
-0.68861002 -0.19312 -1.1633 4278293482
-0.68581003 -0.193 -1.1626 4278293482
-0.72047001 -0.19261999 -1.168 4278293482
-0.71507001 -0.19182 -1.1631 4278293482
-0.71173 -0.19157 -1.1616 4278293482
-0.70991999 -0.19175 -1.1627001 4278293482
-0.7076 -0.19178 -1.1629 4278293482
-0.70275003 -0.19111 -1.1588 4278293482
-0.69422001 -0.19211 -1.1648999 4278293482
-0.69240999 -0.19227 -1.1659 4278293482
-0.68810999 -0.19174001 -1.1626 4278293482
-0.6868 -0.19205 -1.1645 4278293482
-0.72099 -0.19171 -1.169 4278293482
-0.71455997 -0.19064 -1.1624 4278293482
-0.71275002 -0.19080999 -1.1635 4278293482
-0.71043003 -0.19084001 -1.1637 4278293482
-0.70810997 -0.19088 -1.1639 4278293482
-0.70275003 -0.19007 -1.159 4278293482
-0.69092 -0.19080999 -1.1635 4278293482
-0.68810999 -0.19069999 -1.1628 4278293482
-0.6868 -0.191 -1.1647 4278293482
-0.72176999 -0.19001 -1.1664 4278293482
-0.71635997 -0.18922 -1.1616 4278293482
-0.71250999 -0.18884 -1.1592 4278293482
-0.71019 -0.18887 -1.1595 4278293482
-0.70788002 -0.18890999 -1.1597 4278293482
-0.70405 -0.18852 -1.1573 4278293482
-0.69041997 -0.18942 -1.1628 4278293482
-0.68761998 -0.18931 -1.1621 4278293482
-0.68629998 -0.18962 -1.164 4278293482
-0.68251997 -0.18922 -1.1616 4278293482
-0.71635997 -0.18808 -1.1618 4278293482
-0.71302003 -0.18784 -1.1603 4278293482
-0.70968002 -0.1876 -1.1588 4278293482
-0.70736998 -0.18764 -1.159 4278293482
-0.70506001 -0.18767001 -1.1592 4278293482
-0.71585 -0.18693 -1.1611 4278293482
-0.71302003 -0.18682 -1.1604 4278293482
-0.70916998 -0.18645 -1.1581 4278293482
-0.70736998 -0.18662 -1.1592 4278293482
-0.70506001 -0.18664999 -1.1594 4278293482
-0.72204 -0.18599001 -1.1634001 4278293482
-0.71765 -0.18549 -1.1602 4278293482
-0.71482003 -0.18539 -1.1596 4278293482
-0.71148002 -0.18515 -1.1581 4278293482
-0.70815003 -0.18491 -1.1566 4278293482
-0.70635003 -0.18508001 -1.1576999 4278293482
-0.72100002 -0.18456 -1.1619 4278293482
-0.71714002 -0.1842 -1.1595 4278293482
-0.71328002 -0.18382999 -1.1572 4278293482
-0.71148002 -0.18399 -1.1583 4278293482
-0.70866001 -0.18389 -1.1576 4278293482
-0.70534003 -0.18366 -1.1561 4278293482
-0.71662003 -0.18303999 -1.1589 4278293482
-0.71328002 -0.18279999 -1.1574 4278293482
-0.71096998 -0.18284 -1.1576 4278293482
-0.70916998 -0.183 -1.1587 4278293482
-0.70534003 -0.18263 -1.1562999 4278293482
-0.71790999 -0.18149 -1.1571 4278293482
-0.71455997 -0.18126 -1.1557 4278293482
-0.71276999 -0.18143 -1.1567 4278293482
-0.70943999 -0.1812 -1.1552 4278293482
-0.70713001 -0.18122999 -1.1554 4278293482
-0.70534003 -0.18139 -1.1565 4278293482
-0.71945 -0.18086 -1.1598001 4278293482
-0.71508002 -0.18036 -1.1567 4278293482
-0.71224999 -0.18027 -1.156 4278293482
-0.70943999 -0.18017 -1.1554 4278293482
-0.70508999 -0.17967001 -1.1522 4278293482
-0.70432001 -0.18009999 -1.155 4278293482
-0.71945 -0.1797 -1.16 4278293482
-0.71559 -0.17934 -1.1576999 4278293482
-0.71276999 -0.17924 -1.1571 4278293482
-0.71046001 -0.17927 -1.1573 4278293482
-0.70713001 -0.17904 -1.1558 4278293482
-0.70279002 -0.17855 -1.1526 4278293482
-0.71739 -0.17801 -1.1568 4278293482
-0.71199 -0.17726 -1.152 4278293482
-0.70968997 -0.17728999 -1.1522 4278293482
-0.70789999 -0.17746 -1.1532 4278293482
-0.70611 -0.17761999 -1.1543 4278293482
-0.70279002 -0.17738999 -1.1528 4278293482
-0.71687001 -0.17659 -1.1562001 4278293482
-0.71249998 -0.17611 -1.153 4278293482
-0.71070999 -0.17626999 -1.1540999 4278293482
-0.70789999 -0.17617001 -1.1533999 4278293482
-0.70611 -0.17633 -1.1545 4278293482
-0.70227998 -0.17597 -1.1521 4278293482
-0.68953001 -0.17640001 -1.1549 4278293482
-0.71583998 -0.17532 -1.1546 4278293482
-0.71302003 -0.17522 -1.154 4278293482
-0.71122998 -0.17538001 -1.1551 4278293482
-0.70892 -0.17541 -1.1553 4278293482
-0.70560002 -0.17519 -1.1538 4278293482
-0.70227998 -0.17496 -1.1523 4278293482
-0.69132 -0.17523 -1.154 4278293482
-0.68902999 -0.17524999 -1.1542 4278293482
-0.68774003 -0.17554 -1.1561 4278293482
-0.71249998 -0.17398 -1.1533 4278293482
-0.71020001 -0.17402001 -1.1535 4278293482
-0.70841002 -0.17418 -1.1546 4278293482
-0.70253998 -0.17331 -1.1488 4278293482
-0.70125997 -0.17359 -1.1507 4278293482
-0.69310999 -0.17396 -1.1532 4278293482
-0.69032001 -0.17386 -1.1525 4278293482
-0.68703002 -0.17363 -1.1509 4278293482
-0.68575001 -0.17391001 -1.1528 4278293482
-0.70916998 -0.17262 -1.152 4278293482
-0.70739001 -0.17278001 -1.1531 4278293482
-0.70458001 -0.17268001 -1.1524 4278293482
-0.70279002 -0.17284 -1.1535 4278293482
-0.70049 -0.17286 -1.1536 4278293482
-0.69182003 -0.17309999 -1.1552 4278293482
-0.68953001 -0.17313001 -1.1554 4278293482
-0.68575001 -0.17276999 -1.153 4278293482
-0.70866001 -0.17133 -1.1513 4278293482
-0.70635998 -0.17136 -1.1515 4278293482
-0.70406997 -0.17139 -1.1517 4278293482
-0.70074999 -0.17116 -1.1502 4278293482
-0.69132 -0.1718 -1.1545 4278293482
-0.68803 -0.17157 -1.153 4278293482
-0.68575001 -0.1716 -1.1532 4278293482
-0.71118999 -0.16954 -1.1477 4278293482
-0.70993 -0.16982 -1.1496 4278293482
-0.70762998 -0.16985001 -1.1497999 4278293482
-0.70585001 -0.17001 -1.1509 4278293482
-0.70305002 -0.16991 -1.1502 4278293482
-0.70074999 -0.16993999 -1.1504 4278293482
-0.69796002 -0.16983999 -1.1497 4278293482
-0.69567001 -0.16987 -1.1499 4278293482
-0.69439 -0.17015 -1.1518 4278293482
-0.69261003 -0.17030001 -1.1528 4278293482
-0.68932003 -0.17007001 -1.1513 4278293482
-0.68602997 -0.16983999 -1.1497999 4278293482
-0.71066999 -0.16816001 -1.147 4278293482
-0.70889997 -0.16832 -1.1481 4278293482
-0.70661002 -0.16835 -1.1483001 4278293482
-0.70534003 -0.16863 -1.1502 4278293482
-0.70305002 -0.16865 -1.1504 4278293482
-0.70074999 -0.16868 -1.1506 4278293482
-0.69845998 -0.16870999 -1.1508 4278293482
-0.69567001 -0.16861001 -1.1501 4278293482
-0.69388998 -0.16876 -1.1511 4278293482
-0.6911 -0.16866 -1.1505001 4278293482
-0.68831003 -0.16856 -1.1497999 4278293482
-0.68602997 -0.16858999 -1.1499 4278293482
-0.71170998 -0.16723999 -1.1489 4278293482
-0.70889997 -0.16715001 -1.1483001 4278293482
-0.70712 -0.1673 -1.1493 4278293482
-0.70585001 -0.16757999 -1.1512001 4278293482
-0.70406997 -0.16773 -1.1523 4278293482
-0.69973999 -0.16726001 -1.1490999 4278293482
-0.69744998 -0.16729 -1.1492 4278293482
-0.69466001 -0.16719 -1.1486 4278293482
-0.69186997 -0.16709 -1.1479 4278293482
-0.68958998 -0.16711999 -1.1481 4278293482
-0.68932003 -0.16764 -1.1517 4278293482
-0.71066999 -0.16586 -1.1474 4278293482
-0.70889997 -0.16601001 -1.1483999 4278293482
-0.70712 -0.16617 -1.1495 4278293482
-0.70482999 -0.1662 -1.1497 4278293482
-0.70049 -0.16573 -1.1465 4278293482
-0.69821 -0.16576 -1.1467 4278293482
-0.69593 -0.16579001 -1.1469001 4278293482
-0.69414997 -0.16594 -1.1479 4278293482
-0.69137001 -0.16584 -1.1472 4278293482
-0.69009 -0.16610999 -1.1490999 4278293482
-0.68831003 -0.16626 -1.1501 4278293482
-0.71297002 -0.16474 -1.1473 4278293482
-0.71016002 -0.16463999 -1.1467 4278293482
-0.70787001 -0.16467001 -1.1469001 4278293482
-0.70608997 -0.16483 -1.1479 4278293482
-0.70380002 -0.16485 -1.1481 4278293482
-0.70151001 -0.16487999 -1.1483001 4278293482
-0.69923002 -0.16491 -1.1485 4278293482
-0.69694 -0.16494 -1.1487 4278293482
-0.69466001 -0.16496 -1.1489 4278293482
-0.69137001 -0.16474 -1.1474 4278293482
-0.69059998 -0.16514 -1.1501 4278293482
-0.68730998 -0.16491 -1.1486 4278293482
-0.71297002 -0.16366 -1.1475 4278293482
-0.71066999 -0.16369 -1.1477 4278293482
-0.70837998 -0.16372 -1.1479 4278293482
-0.70608997 -0.16374999 -1.1481 4278293482
-0.70278001 -0.16353001 -1.1466 4278293482
-0.70049 -0.16356 -1.1468 4278293482
-0.69821 -0.16359 -1.147 4278293482
-0.69593 -0.16361 -1.1472 4278293482
-0.69313997 -0.16351999 -1.1465 4278293482
-0.69186997 -0.16379 -1.1483999 4278293482
-0.68958998 -0.16381 -1.1485 4278293482
-0.68781 -0.16395999 -1.1496 4278293482
-0.71140999 -0.16215999 -1.1451 4278293482
-0.71016002 -0.16243 -1.147 4278293482
-0.70735002 -0.16234 -1.1464 4278293482
-0.70506001 -0.16237 -1.1466 4278293482
-0.70278001 -0.16240001 -1.1468 4278293482
-0.69998002 -0.16230001 -1.1461 4278293482
-0.69770002 -0.16233 -1.1463 4278293482
-0.69593 -0.16248 -1.1473 4278293482
-0.69213003 -0.16214 -1.1449 4278293482
-0.69036001 -0.16229001 -1.146 4278293482
-0.68808001 -0.16231 -1.1461 4278293482
-0.71214002 -0.16060001 -1.1425 4278293482
-0.71038002 -0.16075 -1.1436 4278293482
-0.71016002 -0.16125 -1.1472 4278293482
-0.70837998 -0.16140001 -1.1482 4278293482
-0.70608997 -0.16143 -1.1483999 4278293482
-0.70328999 -0.16134 -1.1478 4278293482
-0.69896001 -0.16089 -1.1446 4278293482
-0.69770002 -0.16114999 -1.1465 4278293482
-0.69440001 -0.16094001 -1.1449 4278293482
-0.69112003 -0.16073 -1.1434 4278293482
-0.68984997 -0.16099 -1.1453 4278293482
-0.68757999 -0.16101 -1.1454 4278293482
-0.71161997 -0.15933 -1.1418 4278293482
-0.70986003 -0.15947001 -1.1429 4278293482
-0.70861 -0.15974 -1.1447999 4278293482
-0.70683998 -0.15989 -1.1458 4278293482
-0.70455003 -0.15992001 -1.146 4278293482
-0.70124 -0.15971 -1.1445 4278293482
-0.69946998 -0.15985 -1.1456 4278293482
-0.69770002 -0.16 -1.1466 4278293482
-0.69593 -0.16013999 -1.1477 4278293482
-0.69213003 -0.15981001 -1.1453 4278293482
-0.69036001 -0.15995 -1.1463 4278293482
-0.68656999 -0.15962 -1.1439 4278293482
-0.70933998 -0.15820999 -1.1422 4278293482
-0.70757002 -0.15836 -1.1432 4278293482
-0.70477998 -0.15827 -1.1426001 4278293482
-0.70352 -0.15854 -1.1445 4278293482
-0.70124 -0.15855999 -1.1447001 4278293482
-0.69998002 -0.15882 -1.1466 4278293482
-0.69770002 -0.15885 -1.1468 4278293482
-0.69490999 -0.15876 -1.1461 4278293482
-0.69313997 -0.15889999 -1.1471 4278293482
-0.69036001 -0.15881 -1.1465 4278293482
-0.68757999 -0.15871 -1.1458 4278293482
-0.70933998 -0.15704 -1.1423 4278293482
-0.70653999 -0.15695 -1.1417 4278293482
-0.70477998 -0.15708999 -1.1428 4278293482
-0.70301002 -0.15724 -1.1438 4278293482
-0.70124 -0.15738 -1.1449 4278293482
-0.69896001 -0.15741 -1.145 4278293482
-0.69616997 -0.15731999 -1.1444 4278293482
-0.69339001 -0.15722001 -1.1437 4278293482
-0.69161999 -0.15737 -1.1447001 4278293482
-0.68883997 -0.15727 -1.1441 4278293482
-0.68607002 -0.15718 -1.1434 4278293482
-0.71161997 -0.15581 -1.1423 4278293482
-0.70881999 -0.15572 -1.1417 4278293482
-0.70653999 -0.15575001 -1.1418999 4278293482
-0.70425999 -0.15578 -1.1421 4278293482
-0.70301002 -0.15603 -1.1440001 4278293482
-0.70073003 -0.15606 -1.1442 4278293482
-0.69743001 -0.15584999 -1.1427 4278293482
-0.69566 -0.156 -1.1437 4278293482
-0.69287997 -0.1559 -1.143 4278293482
-0.69010001 -0.15581 -1.1423 4278293482
-0.68782997 -0.15583 -1.1425 4278293482
-0.68456 -0.15561999 -1.141 4278293482
-0.71057999 -0.15445 -1.1408 4278293482
-0.70829999 -0.15448 -1.141 4278293482
-0.70653999 -0.15463001 -1.142 4278293482
-0.70375001 -0.15454 -1.1414 4278293482
-0.70147002 -0.15457 -1.1416 4278293482
-0.69971001 -0.15470999 -1.1426001 4278293482
-0.69743001 -0.15473001 -1.1428 4278293482
-0.69566 -0.15487 -1.1438 4278293482
-0.69339001 -0.1549 -1.1440001 4278293482
-0.69060999 -0.15481 -1.1433001 4278293482
-0.68506002 -0.15462001 -1.142 4278293482
-0.71234 -0.15323 -1.1398 4278293482
-0.71057999 -0.15336999 -1.1409 4278293482
-0.70933998 -0.15362 -1.1428 4278293482
-0.70757002 -0.15377 -1.1439 4278293482
-0.70477998 -0.15368 -1.1432 4278293482
-0.70249999 -0.15370999 -1.1434 4278293482
-0.70021999 -0.15373001 -1.1436 4278293482
-0.69743001 -0.15364 -1.143 4278293482
-0.69515997 -0.15367 -1.1431 4278293482
-0.69287997 -0.15369 -1.1433001 4278293482
-0.69112003 -0.15383001 -1.1443 4278293482
-0.68883997 -0.15385 -1.1445 4278293482
-0.68555999 -0.15365 -1.143 4278293482
-0.71461999 -0.15205 -1.1398 4278293482
-0.71182001 -0.15197 -1.1391 4278293482
-0.71006 -0.15211 -1.1402 4278293482
-0.70829999 -0.15225001 -1.1413 4278293482
-0.70602 -0.15228 -1.1415 4278293482
-0.70477998 -0.15253 -1.1434 4278293482
-0.70197999 -0.15245 -1.1427 4278293482
-0.70021999 -0.15257999 -1.1438 4278293482
-0.69641 -0.15227 -1.1414 4278293482
-0.69362998 -0.15218 -1.1407 4278293482
-0.69136 -0.1522 -1.1409 4278293482
-0.69060999 -0.15256999 -1.1436 4278293482
-0.68834001 -0.15259001 -1.1438 4278293482
-0.68555999 -0.1525 -1.1431 4278293482
-0.71691 -0.15084 -1.1397001 4278293482
-0.71515 -0.15098 -1.1408 4278293482
-0.71234 -0.15090001 -1.1402 4278293482
-0.70902002 -0.1507 -1.1387 4278293482
-0.70727003 -0.15084 -1.1397001 4278293482
-0.69590002 -0.15097 -1.1407 4278293482
-0.69515997 -0.15132999 -1.1435 4278293482
-0.69287997 -0.15136001 -1.1436 4278293482
-0.68681997 -0.15106 -1.1414 4278293482
-0.71515 -0.14983 -1.1409 4278293482
-0.71182001 -0.14963 -1.1395 4278293482
-0.70902002 -0.14955001 -1.1388 4278293482
-0.69714999 -0.14957 -1.1390001 4278293482
-0.69488001 -0.14959 -1.1392 4278293482
-0.69464999 -0.15007 -1.1428 4278293482
-0.69010001 -0.15011001 -1.1431 4278293482
-0.68681997 -0.14991 -1.1416 4278293482
-0.71586001 -0.14833 -1.1382999 4278293482
-0.7141 -0.14847 -1.1394 4278293482
-0.71234 -0.1486 -1.1404999 4278293482
-0.70902002 -0.14841001 -1.1390001 4278293482
-0.70519 -0.14811 -1.1366 4278293482
-0.70240998 -0.14802 -1.136 4278293482
-0.70014 -0.14805 -1.1362 4278293482
-0.69839001 -0.14817999 -1.1372 4278293482
-0.69612002 -0.14821 -1.1374 4278293482
-0.69261003 -0.14848 -1.1395 4278293482
-0.69085002 -0.14861 -1.1404999 4278293482
-0.68857998 -0.14862999 -1.1407 4278293482
-0.68531001 -0.14843 -1.1391 4278293482
-0.71866 -0.14726999 -1.1391 4278293482
-0.71481001 -0.14697 -1.1368001 4278293482
-0.71306002 -0.14711 -1.1378 4278293482
-0.71130002 -0.14725 -1.1389 4278293482
-0.70798999 -0.14704999 -1.1374 4278293482
-0.70570999 -0.14708 -1.1375999 4278293482
-0.70292002 -0.147 -1.137 4278293482
-0.70065999 -0.14702 -1.1372 4278293482
-0.69714999 -0.14729001 -1.1393 4278293482
-0.69538999 -0.14743 -1.1403 4278293482
-0.69085002 -0.14747 -1.1407 4278293482
-0.71533 -0.14594001 -1.1378 4278293482
-0.71358001 -0.14608 -1.1388 4278293482
-0.71130002 -0.14611 -1.1391 4278293482
-0.70902002 -0.14613 -1.1393 4278293482
-0.70570999 -0.14594001 -1.1378 4278293482
-0.70396 -0.14608 -1.1388 4278293482
-0.69963002 -0.14567 -1.1356 4278293482
-0.69787002 -0.14579999 -1.1367 4278293482
-0.69085002 -0.14633 -1.1408 4278293482
-0.71656001 -0.14455 -1.136 4278293482
-0.71429002 -0.14458001 -1.1362 4278293482
-0.71306002 -0.14482 -1.1381 4278293482
-0.70921999 -0.14453 -1.1358 4278293482
-0.70798999 -0.14477 -1.1377 4278293482
-0.70519 -0.14469001 -1.1371 4278293482
-0.70344001 -0.14482 -1.1381 4278293482
-0.70065999 -0.14474 -1.1375 4278293482
-0.69787002 -0.14465 -1.1368001 4278293482
-0.69209999 -0.14494 -1.1391 4278293482
-0.69085002 -0.14518 -1.141 4278293482
-0.68733001 -0.14544 -1.143 4278293482
-0.71551001 -0.14319 -1.1345 4278293482
-0.71376002 -0.14331999 -1.1355 4278293482
-0.71306002 -0.14366999 -1.1382999 4278293482
-0.7087 -0.14327 -1.1351 4278293482
-0.70695001 -0.1434 -1.1362 4278293482
-0.70468003 -0.14342999 -1.1364 4278293482
-0.70240998 -0.14345001 -1.1366 4278293482
-0.70117003 -0.14369 -1.1385 4278293482
-0.69839001 -0.14361 -1.1378 4278293482
-0.69663 -0.14374 -1.1389 4278293482
-0.69335002 -0.14354999 -1.1373 4278293482
-0.69057 -0.14346001 -1.1367 4278293482
-0.71533 -0.1425 -1.1382 4278293482
-0.71306002 -0.14252999 -1.1384 4278293482
-0.70921999 -0.14224 -1.1361001 4278293482
-0.70643002 -0.14216 -1.1355 4278293482
-0.70519 -0.14239 -1.1374 4278293482
-0.70240998 -0.14230999 -1.1367 4278293482
-0.70014 -0.14234 -1.1368999 4278293482
-0.69685 -0.14215 -1.1354001 4278293482
-0.69510001 -0.14228 -1.1364 4278293482
-0.69283003 -0.14229999 -1.1366 4278293482
-0.68756998 -0.14269 -1.1397001 4278293482
-0.71481001 -0.14126 -1.1375 4278293482
-0.70991999 -0.14076 -1.1335 4278293482
-0.70765001 -0.14078 -1.1337 4278293482
-0.70591003 -0.14092 -1.1348 4278293482
-0.70468003 -0.14115 -1.1367 4278293482
-0.70188999 -0.14106999 -1.136 4278293482
-0.70014 -0.14120001 -1.1371 4278293482
-0.69633001 -0.14091 -1.1346999 4278293482
-0.69458997 -0.14104 -1.1357 4278293482
-0.69283003 -0.14117 -1.1368001 4278293482
-0.69107997 -0.14128999 -1.1378 4278293482
-0.68554997 -0.14112 -1.1364 4278293482
-0.71673 -0.13957 -1.133 4278293482
-0.71393001 -0.13950001 -1.1323 4278293482
-0.71113998 -0.13942 -1.1317 4278293482
-0.70888001 -0.13945 -1.1319 4278293482
-0.70713001 -0.13958 -1.133 4278293482
-0.70434999 -0.13950001 -1.1324 4278293482
-0.7026 -0.13963 -1.1334 4278293482
-0.69827998 -0.13923 -1.1302 4278293482
-0.69757003 -0.13957 -1.1329 4278293482
-0.69581997 -0.1397 -1.1339999 4278293482
-0.69356 -0.13971999 -1.1342 4278293482
-0.69181001 -0.13985001 -1.1352 4278293482
-0.68956 -0.13987 -1.1354001 4278293482
-0.68577999 -0.13958 -1.133 4278293482
-0.71446002 -0.13851 -1.1332999 4278293482
-0.71061999 -0.13823 -1.131 4278293482
-0.7094 -0.13846 -1.1329 4278293482
-0.70765001 -0.13858999 -1.1339999 4278293482
-0.70591003 -0.13872001 -1.135 4278293482
-0.70311999 -0.13864 -1.1344 4278293482
-0.69983 -0.13846 -1.1329 4278293482
-0.69808 -0.13858999 -1.1339 4278293482
-0.69479001 -0.1384 -1.1324 4278293482
-0.69305003 -0.13853 -1.1334 4278293482
-0.69079 -0.13855 -1.1336 4278293482
-0.68853998 -0.13857 -1.1338 4278293482
-0.68678999 -0.13869999 -1.1348 4278293482
-0.71341002 -0.13717 -1.1318001 4278293482
-0.71166998 -0.1373 -1.1328 4278293482
-0.71096998 -0.13763 -1.1356 4278293482
-0.70921999 -0.13776 -1.1367 4278293482
-0.70695001 -0.13778999 -1.1368999 4278293482
-0.70311999 -0.1375 -1.1345 4278293482
-0.70086002 -0.13753 -1.1346999 4278293482
-0.69808 -0.13744999 -1.1341 4278293482
-0.69531 -0.13737001 -1.1334 4278293482
-0.69356 -0.13749 -1.1344 4278293482
-0.69129997 -0.13751 -1.1346 4278293482
-0.68956 -0.13764 -1.1356 4278293482
-0.68781 -0.13776 -1.1367 4278293482
-0.71515 -0.13587999 -1.1308 4278293482
-0.71288002 -0.13591 -1.1311001 4278293482
-0.71166998 -0.13614 -1.133 4278293482
-0.70835 -0.13596 -1.1315 4278293482
-0.70608997 -0.13598 -1.1317 4278293482
-0.70383 -0.13601001 -1.1319 4278293482
-0.70104998 -0.13593 -1.1313 4278293482
-0.69879001 -0.13595 -1.1315 4278293482
-0.69602001 -0.13586999 -1.1308 4278293482
-0.69479001 -0.13609999 -1.1327 4278293482
-0.69202 -0.13602 -1.132 4278293482
-0.69129997 -0.13635001 -1.1348 4278293482
-0.71568 -0.13486999 -1.1318001 4278293482
-0.71288002 -0.13479 -1.1312 4278293482
-0.71008998 -0.13472 -1.1306 4278293482
-0.70783001 -0.13474999 -1.1308 4278293482
-0.70608997 -0.13486999 -1.1318001 4278293482
-0.70383 -0.1349 -1.1321 4278293482
-0.70104998 -0.13482 -1.1314 4278293482
-0.69827998 -0.13474 -1.1307 4278293482
-0.69704998 -0.13496999 -1.1325999 4278293482
-0.69479001 -0.13499001 -1.1328 4278293482
-0.69253999 -0.13501 -1.133 4278293482
-0.69028002 -0.13503 -1.1332 4278293482
-0.68853998 -0.13515 -1.1342 4278293482
-0.71183002 -0.13349999 -1.1296 4278293482
-0.70956999 -0.13353001 -1.1299 4278293482
-0.70731002 -0.13356 -1.1301 4278293482
-0.70608997 -0.13378 -1.132 4278293482
-0.70331001 -0.1337 -1.1313 4278293482
-0.69950002 -0.13343 -1.1289999 4278293482
-0.69724 -0.13345 -1.1292 4278293482
-0.69602001 -0.13367 -1.1311001 4278293482
-0.69428003 -0.1338 -1.1321 4278293482
-0.69202 -0.13382 -1.1323 4278293482
-0.68823999 -0.13353001 -1.1299 4278293482
-0.71741998 -0.13252001 -1.131 4278293482
-0.71461999 -0.13245 -1.1303999 4278293482
-0.71183002 -0.13237 -1.1298 4278293482
-0.71008998 -0.13249999 -1.1308 4278293482
-0.70835 -0.13262001 -1.1319 4278293482
-0.70453 -0.13235 -1.1296 4278293482
-0.70174998 -0.13226999 -1.1289001 4278293482
-0.69897997 -0.1322 -1.1283 4278293482
-0.69673002 -0.13222 -1.1285 4278293482
-0.69602001 -0.13254 -1.1312 4278293482
-0.69376999 -0.13256 -1.1314 4278293482
-0.69202 -0.13268 -1.1324 4278293482
-0.68823999 -0.13240001 -1.13 4278293482
-0.68650001 -0.13252001 -1.1311001 4278293482
-0.71688998 -0.13125999 -1.1303 4278293482
-0.71357 -0.13109 -1.1288 4278293482
-0.71131003 -0.13112 -1.1291 4278293482
-0.70956999 -0.13124 -1.1301 4278293482
-0.70626003 -0.13107 -1.1286 4278293482
-0.70401001 -0.13109 -1.1289001 4278293482
-0.70071 -0.13091999 -1.1274 4278293482
-0.69950002 -0.13113999 -1.1293 4278293482
-0.69775999 -0.13125999 -1.1303 4278293482
-0.69602001 -0.13138001 -1.1313 4278293482
-0.69325 -0.1313 -1.1307 4278293482
-0.69151002 -0.13142 -1.1317 4278293482
-0.68875003 -0.13135 -1.131 4278293482
-0.71635997 -0.13001999 -1.1296 4278293482
-0.71357 -0.12994 -1.1289999 4278293482
-0.71078002 -0.12987 -1.1283 4278293482
-0.70852 -0.12989999 -1.1286 4278293482
-0.70521998 -0.12973 -1.1271 4278293482
-0.70349002 -0.12985 -1.1281 4278293482
-0.70071 -0.12977 -1.1275001 4278293482
-0.69845998 -0.12980001 -1.1277 4278293482
-0.69621003 -0.12982 -1.1279 4278293482
-0.69448 -0.12994 -1.1289001 4278293482
-0.69325 -0.13015001 -1.1308 4278293482
-0.69151002 -0.13027 -1.1318001 4278293482
-0.68823999 -0.1301 -1.1303 4278293482
-0.68548 -0.13001999 -1.1296 4278293482
-0.71916002 -0.12894 -1.1303 4278293482
-0.71477997 -0.12858 -1.1272 4278293482
-0.71199 -0.12851 -1.1266 4278293482
-0.71025997 -0.12863 -1.1276 4278293482
-0.70747 -0.12856001 -1.127 4278293482
-0.70416999 -0.12839 -1.1255 4278293482
-0.70244002 -0.12851 -1.1266 4278293482
-0.70071 -0.12863 -1.1276 4278293482
-0.69897997 -0.12875 -1.1287 4278293482
-0.69724 -0.12887 -1.1296999 4278293482
-0.69498998 -0.12888999 -1.1299 4278293482
-0.69274002 -0.12891001 -1.1301 4278293482
-0.69099998 -0.12903 -1.1311001 4278293482
-0.68875003 -0.12905 -1.1313 4278293482
-0.68700999 -0.12917 -1.1323 4278293482
-0.71583003 -0.12762 -1.1289999 4278293482
-0.71199 -0.12736 -1.1267 4278293482
-0.70973003 -0.12739 -1.1269 4278293482
-0.70695001 -0.12730999 -1.1263 4278293482
-0.70469999 -0.12734 -1.1265 4278293482
-0.70297003 -0.12746 -1.1275001 4278293482
-0.70122999 -0.12758 -1.1286 4278293482
-0.69845998 -0.1275 -1.1279 4278293482
-0.69621003 -0.12751999 -1.1281 4278293482
-0.69448 -0.12763999 -1.1292 4278293482
-0.69120002 -0.12747 -1.1277 4278293482
-0.68671 -0.12751 -1.128 4278293482
-0.71916002 -0.12662999 -1.1306 4278293482
-0.71425003 -0.12617999 -1.1266 4278293482
-0.71252 -0.12630001 -1.1277 4278293482
-0.71025997 -0.12632 -1.1279 4278293482
-0.708 -0.12635 -1.1281 4278293482
-0.70573997 -0.12637 -1.1283 4278293482
-0.70349002 -0.12639999 -1.1285 4278293482
-0.70071 -0.12632 -1.1279 4278293482
-0.69742 -0.12615 -1.1264 4278293482
-0.69518 -0.12617999 -1.1266 4278293482
-0.69190001 -0.12601 -1.125 4278293482
-0.68966001 -0.12603 -1.1252 4278293482
-0.68742001 -0.12604 -1.1253999 4278293482
-0.71704 -0.12518001 -1.1273 4278293482
-0.71372002 -0.12502 -1.1259 4278293482
-0.71199 -0.12514 -1.1269 4278293482
-0.71025997 -0.12526 -1.128 4278293482
-0.70905 -0.12547 -1.1299 4278293482
-0.70521998 -0.12521 -1.1276 4278293482
-0.70191997 -0.12503999 -1.1260999 4278293482
-0.69915003 -0.12497 -1.1255 4278293482
-0.69638997 -0.1249 -1.1248 4278293482
-0.69466001 -0.12501 -1.1258 4278293482
-0.69190001 -0.12494 -1.1252 4278293482
-0.68966001 -0.12496 -1.1253 4278293482
-0.68638998 -0.12479 -1.1238 4278293482
-0.71757001 -0.12424 -1.1283 4278293482
-0.71372002 -0.12399 -1.126 4278293482
-0.71041 -0.12383 -1.1245 4278293482
-0.70815003 -0.12385 -1.1247 4278293482
-0.70643002 -0.12397 -1.1258 4278293482
-0.70416999 -0.12399 -1.126 4278293482
-0.70244002 -0.12411 -1.1271 4278293482
-0.69862998 -0.12385 -1.1247 4278293482
-0.69586998 -0.12378 -1.1241 4278293482
-0.69362998 -0.1238 -1.1242 4278293482
-0.69344002 -0.12419 -1.1278 4278293482
-0.69171 -0.1243 -1.1289001 4278293482
-0.68895 -0.12423 -1.1282001 4278293482
-0.71651 -0.12295 -1.1267 4278293482
-0.71266001 -0.1227 -1.1244 4278293482
-0.70883 -0.12245 -1.1221 4278293482
-0.70604998 -0.12238 -1.1215 4278293482
-0.70433003 -0.12249 -1.1224999 4278293482
-0.70261002 -0.12261 -1.1236 4278293482
-0.70036 -0.12263 -1.1238 4278293482
-0.69758999 -0.12256 -1.1231 4278293482
-0.69534999 -0.12258 -1.1233 4278293482
-0.69362998 -0.12269 -1.1244 4278293482
-0.69240999 -0.1229 -1.1263 4278293482
-0.69016999 -0.12292 -1.1264 4278293482
-0.68792999 -0.12294 -1.1266 4278293482
-0.71438998 -0.12143 -1.1235 4278293482
-0.71213001 -0.12145 -1.1237 4278293482
-0.70934999 -0.12139 -1.1231 4278293482
-0.70657998 -0.12132 -1.1224999 4278293482
-0.70327997 -0.12116 -1.1210001 4278293482
-0.70156002 -0.12127 -1.122 4278293482
-0.69984001 -0.12139 -1.1231 4278293482
-0.69810998 -0.1215 -1.1241 4278293482
-0.69534999 -0.12143 -1.1235 4278293482
-0.69259 -0.12136 -1.1228 4278293482
-0.69086999 -0.12147 -1.1238 4278293482
-0.68914002 -0.12158 -1.1248 4278293482
-0.68792999 -0.12178 -1.1267 4278293482
-0.71491998 -0.12039 -1.1244 4278293482
-0.71108001 -0.12014 -1.1221 4278293482
-0.70934999 -0.12025 -1.1232001 4278293482
-0.70709997 -0.12028 -1.1234 4278293482
-0.70485002 -0.1203 -1.1236 4278293482
-0.70156002 -0.12014 -1.1221 4278293482
-0.69984001 -0.12025 -1.1232001 4278293482
-0.69862998 -0.12045 -1.1251 4278293482
-0.69586998 -0.12038 -1.1244 4278293482
-0.69208002 -0.12013 -1.1221 4278293482
-0.68984002 -0.12015 -1.1222 4278293482
-0.68812001 -0.12026 -1.1233 4278293482
-0.71332997 -0.11899 -1.122 4278293482
-0.71160001 -0.11911 -1.1231 4278293482
-0.70552999 -0.11888 -1.1210001 4278293482
-0.70327997 -0.11891 -1.1212 4278293482
-0.70156002 -0.11902 -1.1223 4278293482
-0.69984001 -0.11913 -1.1233 4278293482
-0.69862998 -0.11933 -1.1252 4278293482
-0.69534999 -0.11917 -1.1237 4278293482
-0.69310999 -0.11919 -1.1239001 4278293482
-0.69035 -0.11912 -1.1232001 4278293482
-0.68760002 -0.11905 -1.1224999 4278293482
-0.68588001 -0.11915 -1.1236 4278293482
-0.70671999 -0.11757 -1.1192 4278293482
-0.70499998 -0.11768 -1.1203001 4278293482
-0.70327997 -0.11779 -1.1213 4278293482
-0.70208001 -0.11799 -1.1232001 4278293482
-0.69984001 -0.11801 -1.1234 4278293482
-0.69656003 -0.11786 -1.1219 4278293482
-0.69432002 -0.11788 -1.1221 4278293482
-0.69155997 -0.11781 -1.1214 4278293482
-0.68932003 -0.11782 -1.1216 4278293482
-0.68862998 -0.11811 -1.1244 4278293482
-0.68690002 -0.11822 -1.1253999 4278293482
-0.68466997 -0.11824 -1.1255 4278293482
-0.70776999 -0.11664 -1.1210001 4278293482
-0.70499998 -0.11658 -1.1204 4278293482
-0.70327997 -0.11669 -1.1214 4278293482
-0.70156002 -0.1168 -1.1224999 4278293482
-0.69932002 -0.11682 -1.1227 4278293482
-0.69551998 -0.11657 -1.1203001 4278293482
-0.69327998 -0.11659 -1.1205 4278293482
-0.69103998 -0.11661 -1.1207 4278293482
-0.68984002 -0.11681 -1.1226 4278293482
-0.68812001 -0.11691 -1.1236 4278293482
-0.68638998 -0.11702 -1.1246001 4278293482
-0.68415999 -0.11704 -1.1248 4278293482
-0.70896 -0.11534 -1.1192 4278293482
-0.70671999 -0.11536 -1.1194 4278293482
-0.70447999 -0.11538 -1.1197 4278293482
-0.70222998 -0.11541 -1.1199 4278293482
-0.69894999 -0.11525 -1.1184 4278293482
-0.69670999 -0.11527 -1.1186 4278293482
-0.69448 -0.11529 -1.1188 4278293482
-0.69275999 -0.1154 -1.1198 4278293482
-0.69103998 -0.1155 -1.1208 4278293482
-0.68932003 -0.11561 -1.1219 4278293482
-0.68812001 -0.1158 -1.1237 4278293482
-0.70896 -0.11424 -1.1193 4278293482
-0.70725 -0.11434 -1.1204 4278293482
-0.70447999 -0.11428 -1.1198 4278293482
-0.70118999 -0.11413 -1.1183 4278293482
-0.69894999 -0.11415 -1.1185 4278293482
-0.69722998 -0.11425 -1.1195 4278293482
-0.69656003 -0.11453 -1.1223 4278293482
-0.69432002 -0.11455 -1.1224999 4278293482
-0.69103998 -0.1144 -1.1209 4278293482
-0.68932003 -0.1145 -1.122 4278293482
-0.70896 -0.11311 -1.1195 4278293482
-0.70671999 -0.11314 -1.1197 4278293482
-0.70499998 -0.11324 -1.1207 4278293482
-0.70222998 -0.11318 -1.1201 4278293482
-0.69998997 -0.1132 -1.1203001 4278293482
-0.69827998 -0.1133 -1.1213 4278293482
-0.69603997 -0.11332 -1.1215 4278293482
-0.69379997 -0.11334 -1.1217 4278293482
-0.69155997 -0.11336 -1.1219 4278293482
-0.68984002 -0.11347 -1.1229 4278293482
-0.70842999 -0.1119 -1.1187 4278293482
-0.70565999 -0.11183 -1.1181 4278293482
-0.70552999 -0.11219 -1.1217 4278293482
-0.70170999 -0.11196 -1.1194 4278293482
-0.69946998 -0.11198 -1.1196001 4278293482
-0.69774997 -0.11208 -1.1206 4278293482
-0.69551998 -0.1121 -1.1208 4278293482
-0.69275999 -0.11204 -1.1201 4278293482
-0.69001001 -0.11197 -1.1195 4278293482
-0.71015 -0.11068 -1.1178 4278293482
-0.70791 -0.11071 -1.118 4278293482
-0.70460999 -0.11056 -1.1165 4278293482
-0.70499998 -0.111 -1.1210001 4278293482
-0.70118999 -0.11077 -1.1186 4278293482
-0.70051998 -0.11104 -1.1214 4278293482
-0.69827998 -0.11106 -1.1216 4278293482
-0.69499999 -0.11091 -1.1201 4278293482
-0.69173002 -0.11076 -1.1185 4278293482
-0.68949002 -0.11078 -1.1187 4278293482
-0.68623 -0.11063 -1.1172 4278293482
-0.70962 -0.10951 -1.117 4278293482
-0.70791 -0.10962 -1.1181 4278293482
-0.70513999 -0.10956 -1.1174999 4278293482
-0.70447999 -0.10983 -1.1202 4278293482
-0.70118999 -0.10968 -1.1187 4278293482
-0.69946998 -0.10978 -1.1198 4278293482
-0.69619 -0.10963 -1.1183 4278293482
-0.69396001 -0.10965 -1.1185 4278293482
-0.69120997 -0.10959 -1.1178 4278293482
-0.68949002 -0.10969 -1.1188 4278293482
-0.68674999 -0.10962 -1.1181 4278293482
-0.71015 -0.10848 -1.118 4278293482
-0.70842999 -0.10859 -1.1191 4278293482
-0.70565999 -0.10852 -1.1184 4278293482
-0.70447999 -0.10871 -1.1203001 4278293482
-0.70065999 -0.10848 -1.118 4278293482
-0.6979 -0.10842 -1.1173 4278293482
-0.69567001 -0.10844 -1.1174999 4278293482
-0.69239998 -0.10829 -1.1160001 4278293482
-0.69068998 -0.10839 -1.1171 4278293482
-0.68897998 -0.10849 -1.1181 4278293482
-0.68725997 -0.10859 -1.1191 4278293482
-0.70962 -0.10727 -1.1173 4278293482
-0.70738 -0.10729 -1.1174999 4278293482
-0.70513999 -0.10731 -1.1177 4278293482
-0.70131999 -0.10709 -1.1154 4278293482
-0.69909 -0.10711 -1.1156 4278293482
-0.69738001 -0.10721 -1.1166 4278293482
-0.69567001 -0.10731 -1.1176 4278293482
-0.69292003 -0.10724 -1.117 4278293482
-0.69120997 -0.10734 -1.118 4278293482
-0.68949002 -0.10744 -1.119 4278293482
-0.68725997 -0.10746 -1.1192 4278293482
-0.70749998 -0.10577 -1.114 4278293482
-0.70738 -0.10611 -1.1176 4278293482
-0.70460999 -0.10605 -1.117 4278293482
-0.70289999 -0.10615 -1.118 4278293482
-0.69960999 -0.10601 -1.1165 4278293482
-0.6979 -0.10611 -1.1176 4278293482
-0.69567001 -0.10613 -1.1178 4278293482
-0.69344002 -0.10615 -1.1179 4278293482
-0.69068998 -0.10608 -1.1173 4278293482
-0.68794 -0.10602 -1.1166 4278293482
-0.70802999 -0.10465 -1.115 4278293482
-0.70578998 -0.10467 -1.1152 4278293482
-0.70355999 -0.10469 -1.1154 4278293482
-0.70289999 -0.10495 -1.1181 4278293482
-0.70014 -0.10489 -1.1174999 4278293482
-0.69738001 -0.10482 -1.1168 4278293482
-0.69567001 -0.10492 -1.1179 4278293482
-0.69187999 -0.1047 -1.1155 4278293482
-0.68965 -0.10472 -1.1157 4278293482
-0.68794 -0.10481 -1.1167001 4278293482
-0.71133 -0.10369 -1.1165 4278293482
-0.70908999 -0.10371 -1.1167001 4278293482
-0.70631999 -0.10365 -1.1161 4278293482
-0.70302999 -0.10351 -1.1145999 4278293482
-0.69922 -0.1033 -1.1123 4278293482
-0.69804001 -0.10347 -1.1142 4278293482
-0.69476998 -0.10333 -1.1127 4278293482
-0.69410998 -0.10359 -1.1154 4278293482
-0.68914002 -0.10354 -1.1149 4278293482
-0.70749998 -0.10243 -1.1143 4278293482
-0.70578998 -0.10253 -1.1154 4278293482
-0.70302999 -0.10247 -1.1147 4278293482
-0.69922 -0.10225 -1.1124001 4278293482
-0.69752002 -0.10235 -1.1134 4278293482
-0.69581002 -0.10244 -1.1145 4278293482
-0.69515002 -0.1027 -1.1172 4278293482
-0.69239998 -0.10263 -1.1166 4278293482
-0.68861997 -0.10242 -1.1142 4278293482
-0.71025997 -0.10135 -1.115 4278293482
-0.70591003 -0.10107 -1.1119 4278293482
-0.70525998 -0.10132 -1.1145999 4278293482
-0.70302999 -0.10134 -1.1148 4278293482
-0.69975001 -0.1012 -1.1133 4278293482
-0.69699001 -0.10114 -1.1127 4278293482
-0.69529003 -0.10124 -1.1137 4278293482
-0.69358999 -0.10133 -1.1148 4278293482
-0.69187999 -0.10142 -1.1158 4278293482
-0.68809998 -0.10121 -1.1134 4278293482
-0.70984 -0.099766001 -1.1107 4278293482
-0.70761001 -0.099785998 -1.1109 4278293482
-0.70591003 -0.099881001 -1.112 4278293482
-0.70420998 -0.099976003 -1.113 4278293482
-0.70249999 -0.10007 -1.1141 4278293482
-0.69975001 -0.10001 -1.1134 4278293482
-0.69804001 -0.10011 -1.1145 4278293482
-0.71090001 -0.098784 -1.1125 4278293482
-0.70761001 -0.098654002 -1.1109999 4278293482
-0.70485002 -0.098598003 -1.1104 4278293482
-0.70262003 -0.098615997 -1.1106 4278293482
-0.71090001 -0.097672001 -1.1126 4278293482
-0.70867002 -0.097691 -1.1128 4278293482
-0.70485002 -0.097488001 -1.1105 4278293482
-0.70314997 -0.097580001 -1.1115 4278293482
-0.71206999 -0.096421003 -1.1108 4278293482
-0.70984 -0.096441001 -1.1109999 4278293482
-0.70761001 -0.09646 -1.1112 4278293482
-0.70485002 -0.096404999 -1.1106 4278293482
-0.71270001 -0.095114 -1.1081001 4278293482
-0.71100003 -0.095205002 -1.1092 4278293482
-0.70771003 -0.095080003 -1.1077 4278293482
-0.70600998 -0.095170997 -1.1088001 4278293482
-0.70432001 -0.095261998 -1.1098 4278293482
-0.71153998 -0.094215997 -1.1101 4278293482
-0.71090001 -0.094448999 -1.1129 4278293482
-0.70761001 -0.094324999 -1.1114 4278293482
-0.70538002 -0.094342999 -1.1116 4278293482
-0.71438998 -0.092908002 -1.1072 4278293482
-0.71323001 -0.093069002 -1.1091 4278293482
-0.71100003 -0.093088001 -1.1094 4278293482
-0.70984 -0.093248002 -1.1113 4278293482
-0.70708001 -0.093195997 -1.1106 4278293482
-0.70538002 -0.093285002 -1.1117001 4278293482
-0.69817001 -0.093266003 -1.1115 4278293482
-0.69594997 -0.093281999 -1.1117001 4278293482
-0.69268 -0.093154997 -1.1102 4278293482
-0.71270001 -0.091894999 -1.1084 4278293482
-0.70993 -0.091844 -1.1078 4278293482
-0.70823997 -0.091931999 -1.1088001 4278293482
-0.70600998 -0.091949999 -1.109 4278293482
-0.70379001 -0.091968 -1.1093 4278293482
-0.70156002 -0.091985002 -1.1095001 4278293482
-0.70038998 -0.092142999 -1.1114 4278293482
-0.69870001 -0.09223 -1.1124001 4278293482
-0.69542003 -0.092105001 -1.1109 4278293482
-0.69111001 -0.091839001 -1.1077 4278293482
-0.68941998 -0.091925003 -1.1087 4278293482
-0.71438998 -0.090655997 -1.1073999 4278293482
-0.71215999 -0.090674996 -1.1076 4278293482
-0.70993 -0.090692997 -1.1079 4278293482
-0.70771003 -0.090710998 -1.1081001 4278293482
-0.70494998 -0.090659998 -1.1075 4278293482
-0.70326 -0.090746 -1.1085 4278293482
-0.70156002 -0.090833001 -1.1095999 4278293482
-0.69986999 -0.090919003 -1.1106 4278293482
-0.69764 -0.090934999 -1.1108 4278293482
-0.69332999 -0.090673 -1.1076 4278293482
-0.69059002 -0.090618998 -1.1069 4278293482
-0.71385002 -0.089437999 -1.1066999 4278293482
-0.70993 -0.089543 -1.108 4278293482
-0.70771003 -0.089560002 -1.1082 4278293482
-0.70494998 -0.089510001 -1.1075 4278293482
-0.70326 -0.089594997 -1.1086 4278293482
-0.70104003 -0.089612 -1.1088001 4278293482
-0.69775999 -0.089491002 -1.1073 4278293482
-0.69502002 -0.089437999 -1.1066999 4278293482
-0.69332999 -0.089521997 -1.1077 4278293482
-0.69111001 -0.089537002 -1.1079 4278293482
-0.7094 -0.088325001 -1.1072 4278293482
-0.70823997 -0.088477001 -1.1091 4278293482
-0.70600998 -0.088494003 -1.1093 4278293482
-0.7022 -0.088308997 -1.107 4278293482
-0.69945002 -0.088257998 -1.1064 4278293482
-0.69670999 -0.088206001 -1.1057 4278293482
-0.69607002 -0.088425003 -1.1085 4278293482
-0.69436997 -0.088508002 -1.1095001 4278293482
-0.69268 -0.088590004 -1.1105 4278293482
-0.71223998 -0.086988002 -1.1043 4278293482
-0.71055001 -0.087072 -1.1054 4278293482
-0.70885998 -0.087155998 -1.1064 4278293482
-0.70717001 -0.087240003 -1.1075 4278293482
-0.70441997 -0.087191001 -1.1069 4278293482
-0.70273 -0.087274 -1.1079 4278293482
-0.70051003 -0.087289996 -1.1081001 4278293482
-0.69775999 -0.087238997 -1.1075 4278293482
-0.69554001 -0.087255001 -1.1077 4278293482
-0.69227999 -0.087136 -1.1062 4278293482
-0.69163001 -0.087351002 -1.1089 4278293482
-0.71331 -0.086039998 -1.1061 4278293482
-0.71109003 -0.086057998 -1.1063 4278293482
-0.7094 -0.086140998 -1.1073999 4278293482
-0.70611 -0.086026996 -1.1059 4278293482
-0.70336002 -0.085978001 -1.1052999 4278293482
-0.70166999 -0.086060002 -1.1063 4278293482
-0.69945002 -0.086075999 -1.1065 4278293482
-0.69670999 -0.086025998 -1.1059 4278293482
-0.69502002 -0.086107001 -1.1069 4278293482
-0.69227999 -0.086055003 -1.1063 4278293482
-0.68901998 -0.085937001 -1.1048 4278293482
-0.71223998 -0.084833004 -1.1045001 4278293482
-0.71055001 -0.084914997 -1.1056 4278293482
-0.70832998 -0.084931999 -1.1058 4278293482
-0.70556998 -0.084884003 -1.1051 4278293482
-0.70229 -0.084771 -1.1037 4278293482
-0.70113999 -0.084917001 -1.1056 4278293482
-0.69734001 -0.084737003 -1.1032 4278293482
-0.69564998 -0.084817 -1.1043 4278293482
-0.69397002 -0.084896997 -1.1052999 4278293482
-0.69174999 -0.084912002 -1.1055 4278293482
-0.71116 -0.083630003 -1.1029 4278293482
-0.71109003 -0.083903 -1.1065 4278293482
-0.70779002 -0.083792001 -1.105 4278293482
-0.70611 -0.083871998 -1.1061 4278293482
-0.70282 -0.083760999 -1.1046 4278293482
-0.70060998 -0.083775997 -1.1048 4278293482
-0.69839001 -0.083792001 -1.105 4278293482
-0.69617999 -0.083806999 -1.1052001 4278293482
-0.69449002 -0.083885998 -1.1062 4278293482
-0.69071001 -0.083706997 -1.1039 4278293482
-0.71392 -0.082575999 -1.1036 4278293482
-0.71008998 -0.082405001 -1.1013 4278293482
-0.70734 -0.082359001 -1.1007 4278293482
-0.70565999 -0.082438 -1.1016999 4278293482
-0.70344001 -0.082454003 -1.1019 4278293482
-0.70175999 -0.082533002 -1.103 4278293482
-0.70007998 -0.082612 -1.104 4278293482
-0.69839001 -0.082690001 -1.1051 4278293482
-0.69564998 -0.082640998 -1.1044 4278293482
-0.69344002 -0.082656004 -1.1046 4278293482
-0.68966001 -0.082479 -1.1023 4278293482
-0.71446002 -0.081520997 -1.1045001 4278293482
-0.71223998 -0.081537999 -1.1047 4278293482
-0.70841002 -0.081367999 -1.1023999 4278293482
-0.70673001 -0.081446998 -1.1035 4278293482
-0.70291001 -0.081276 -1.1012 4278293482
-0.70122999 -0.081354 -1.1022 4278293482
-0.69954997 -0.081431001 -1.1033 4278293482
-0.69786 -0.081509002 -1.1043 4278293482
-0.69564998 -0.081523001 -1.1045001 4278293482
-0.69397002 -0.081600003 -1.1056 4278293482
-0.69071001 -0.081487998 -1.1041 4278293482
-0.71392 -0.080380999 -1.1037 4278293482
-0.71116 -0.080337003 -1.1030999 4278293482
-0.70841002 -0.080292001 -1.1025 4278293482
-0.70673001 -0.080369003 -1.1036 4278293482
-0.70291001 -0.080201 -1.1013 4278293482
-0.70122999 -0.080277003 -1.1023 4278293482
-0.69902003 -0.080292001 -1.1025 4278293482
-0.69681001 -0.080306999 -1.1027 4278293482
-0.69511998 -0.080383003 -1.1038001 4278293482
-0.69239002 -0.080334999 -1.1030999 4278293482
-0.68913001 -0.080224998 -1.1016001 4278293482
-0.71122998 -0.079028003 -1.0996 4278293482
-0.70901 -0.079043999 -1.0998 4278293482
-0.70787001 -0.079181001 -1.1016999 4278293482
-0.70726001 -0.079379 -1.1045001 4278293482
-0.70291001 -0.079152003 -1.1013 4278293482
-0.69910002 -0.078984998 -1.099 4278293482
-0.69796002 -0.079121001 -1.1009001 4278293482
-0.69575 -0.079135001 -1.1011 4278293482
-0.69406998 -0.079209998 -1.1021 4278293482
-0.69134003 -0.079162002 -1.1015 4278293482
-0.71451998 -0.078051001 -1.1011 4278293482
-0.71231002 -0.078068003 -1.1014 4278293482
-0.70955002 -0.078024 -1.1008 4278293482
-0.70679998 -0.077979997 -1.1001 4278293482
-0.70673001 -0.078235 -1.1037 4278293482
-0.70238 -0.078010999 -1.1006 4278293482
-0.70016998 -0.078025997 -1.1008 4278293482
-0.69849002 -0.078100003 -1.1018 4278293482
-0.69628 -0.078114003 -1.102 4278293482
-0.69459999 -0.078188002 -1.1030999 4278293482
-0.69134003 -0.078080997 -1.1016001 4278293482
-0.71231002 -0.076954 -1.1014 4278293482
-0.70901 -0.076853 -1.1 4278293482
-0.70679998 -0.076867998 -1.1002001 4278293482
-0.70405 -0.076824002 -1.0996 4278293482
-0.70183998 -0.076839 -1.0998 4278293482
-0.70016998 -0.076912999 -1.1009001 4278293482
-0.69743001 -0.076867998 -1.1002001 4278293482
-0.69575 -0.076940998 -1.1013 4278293482
-0.69406998 -0.077013001 -1.1023 4278293482
-0.69186002 -0.077027 -1.1025 4278293482
-0.68703997 -0.076742999 -1.0984 4278293482
-0.68589002 -0.076874003 -1.1003 4278293482
-0.70848 -0.075696997 -1.0992 4278293482
-0.70573002 -0.075654 -1.0986 4278293482
-0.70299 -0.075611003 -1.098 4278293482
-0.70025003 -0.075567 -1.0973001 4278293482
-0.69910002 -0.075698003 -1.0992 4278293482
-0.69743001 -0.075769998 -1.1003 4278293482
-0.69521999 -0.075782999 -1.1005 4278293482
-0.69195998 -0.075680003 -1.099 4278293482
-0.68923998 -0.075634003 -1.0983 4278293482
-0.68703997 -0.075645998 -1.0985 4278293482
-0.70793998 -0.074552998 -1.0985 4278293482
-0.70626003 -0.074625 -1.0994999 4278293482
-0.70299 -0.074524999 -1.0980999 4278293482
-0.69971001 -0.074424997 -1.0966001 4278293482
-0.69857001 -0.074552998 -1.0985 4278293482
-0.69637001 -0.074566998 -1.0987 4278293482
-0.69363999 -0.074522004 -1.098 4278293482
-0.69037998 -0.074419998 -1.0965 4278293482
-0.68818998 -0.074432999 -1.0967 4278293482
-0.68703997 -0.074560001 -1.0986 4278293482
-0.68536001 -0.07463 -1.0996 4278293482
-0.70573002 -0.073445998 -1.0987999 4278293482
-0.70244998 -0.073348001 -1.0973001 4278293482
-0.70025003 -0.073362 -1.0975 4278293482
-0.69698 -0.073261999 -1.096 4278293482
-0.69531 -0.073331997 -1.097 4278293482
-0.69363999 -0.073402002 -1.0980999 4278293482
-0.69090998 -0.073357999 -1.0974 4278293482
-0.68870997 -0.073370002 -1.0976 4278293482
-0.68651003 -0.073381998 -1.0978 4278293482
-0.68484002 -0.073450997 -1.0987999 4278293482
-0.69971001 -0.072152004 -1.0967 4278293482
-0.69804001 -0.072219998 -1.0978 4278293482
-0.69531 -0.072177999 -1.0971 4278293482
-0.69363999 -0.072246 -1.0982 4278293482
-0.69037998 -0.072146997 -1.0967 4278293482
-0.68870997 -0.072214998 -1.0977 4278293482
-0.68703997 -0.072283 -1.0987 4278293482
-0.68536001 -0.072350003 -1.0997 4278293482
-0.69865 -0.070931002 -1.0951 4278293482
-0.69698 -0.070998996 -1.0962 4278293482
-0.69424999 -0.070956998 -1.0955 4278293482
-0.69204998 -0.070969999 -1.0957 4278293482
-0.69037998 -0.071037002 -1.0967 4278293482
-0.68818998 -0.071047999 -1.0969 4278293482
-0.68546999 -0.071005002 -1.0962 4278293482
-0.68326998 -0.071015999 -1.0964 4278293482
-0.69971001 -0.069959 -1.0969 4278293482
-0.69751 -0.069972001 -1.0971 4278293482
-0.69477999 -0.069930002 -1.0964 4278293482
-0.69310999 -0.069996998 -1.0975 4278293482
-0.69090998 -0.070009001 -1.0977 4278293482
-0.68870997 -0.070019998 -1.0978 4278293482
-0.68598998 -0.069977999 -1.0972 4278293482
-0.68379998 -0.069989003 -1.0973001 4278293482
-0.69918001 -0.068806 -1.0961 4278293482
-0.69591999 -0.068713002 -1.0946 4278293482
-0.69371998 -0.068724997 -1.0948 4278293482
-0.69204998 -0.068790004 -1.0958 4278293482
-0.69037998 -0.068855003 -1.0969 4278293482
-0.68818998 -0.068866998 -1.0971 4278293482
-0.68546999 -0.068824001 -1.0964 4278293482
-0.69924003 -0.067474999 -1.0926 4278293482
-0.69810998 -0.067592002 -1.0944999 4278293482
-0.69537997 -0.067552 -1.0937999 4278293482
-0.69318998 -0.067564003 -1.094 4278293482
-0.69098997 -0.067575 -1.0942 4278293482
-0.68879998 -0.067587003 -1.0944 4278293482
-0.68607998 -0.067546003 -1.0937001 4278293482
-0.68441999 -0.067608997 -1.0948 4278293482
-0.70030999 -0.066471003 -1.0943 4278293482
-0.69810998 -0.066482998 -1.0944999 4278293482
-0.69537997 -0.066444002 -1.0939 4278293482
-0.69265997 -0.066404 -1.0932 4278293482
-0.69046998 -0.066416003 -1.0934 4278293482
-0.68826997 -0.066427 -1.0936 4278293482
-0.68607998 -0.066437997 -1.0937999 4278293482
-0.69977999 -0.065311998 -1.0936 4278293482
-0.69757998 -0.065324001 -1.0937999 4278293482
-0.69537997 -0.065335996 -1.094 4278293482
-0.69265997 -0.065297 -1.0933 4278293482
-0.69046998 -0.065309003 -1.0935 4278293482
-0.68879998 -0.065370001 -1.0944999 4278293482
-0.70257002 -0.06408 -1.0907 4278293482
-0.70037001 -0.064092003 -1.0908999 4278293482
-0.69871002 -0.064153999 -1.0919 4278293482
-0.69704998 -0.064214997 -1.0930001 4278293482
-0.69485003 -0.064227 -1.0932 4278293482
-0.69213003 -0.064189002 -1.0925 4278293482
-0.69046998 -0.064249001 -1.0936 4278293482
-0.68721998 -0.064159997 -1.092 4278293482
-0.70257002 -0.063055001 -1.0907 4278293482
-0.70090997 -0.063115999 -1.0918 4278293482
-0.69924003 -0.063176997 -1.0928 4278293482
-0.69757998 -0.063236997 -1.0939 4278293482
-0.69432002 -0.063151002 -1.0924 4278293482
-0.69265997 -0.063211001 -1.0934 4278293482
-0.68993998 -0.063173003 -1.0928 4278293482
-0.68721998 -0.063134 -1.0921 4278293482
-0.70257002 -0.06199 -1.0908 4278293482
-0.70037001 -0.062001999 -1.091 4278293482
-0.69818002 -0.062013999 -1.0912 4278293482
-0.69651997 -0.062073 -1.0923001 4278293482
-0.69432002 -0.062084999 -1.0925 4278293482
-0.69265997 -0.062144 -1.0935 4278293482
-0.68993998 -0.062105998 -1.0928 4278293482
-0.68774998 -0.062116999 -1.0930001 4278293482
-0.70696002 -0.060862001 -1.0904 4278293482
-0.70529997 -0.060920998 -1.0915 4278293482
-0.70363998 -0.06098 -1.0925 4278293482
-0.70143998 -0.060991999 -1.0928 4278293482
-0.69764 -0.060862001 -1.0904 4278293482
-0.69492 -0.060826 -1.0898 4278293482
-0.69326001 -0.060883999 -1.0908 4278293482
-0.69160002 -0.060942002 -1.0919 4278293482
-0.68888003 -0.060904998 -1.0912 4278293482
-0.68721998 -0.060963001 -1.0922 4278293482
-0.70862001 -0.059677999 -1.0894001 4278293482
-0.70696002 -0.059735999 -1.0905 4278293482
-0.70529997 -0.059794001 -1.0915 4278293482
-0.70310003 -0.059806 -1.0918 4278293482
-0.70037001 -0.059771001 -1.0911 4278293482
-0.69818002 -0.059783 -1.0913 4278293482
-0.69492 -0.059700999 -1.0898 4278293482
-0.69273001 -0.059712 -1.09 4278293482
-0.69054002 -0.059721999 -1.0901999 4278293482
-0.68835002 -0.059732001 -1.0904 4278293482
-0.70973003 -0.058428999 -1.0876 4278293482
