# .PCD v0.7 - Point Cloud Data file format
VERSION 0.7
FIELDS x y z rgb
SIZE 4 4 4 4
TYPE F F F U
COUNT 1 1 1 1
WIDTH 51
HEIGHT 1
VIEWPOINT 0 0 0 1 0 0 0
POINTS 51
DATA ascii
-0.23955999 -0.68285 -1.1921 4294933822
-0.2441 -0.68188 -1.1944 4294933822
-0.23968001 -0.68164003 -1.194 4294933822
-0.24433 -0.68243998 -1.1964 4294933822
-0.23968001 -0.68122 -1.1942 4294933822
-0.24649 -0.68190998 -1.1964 4294933822
-0.24421 -0.68155003 -1.1957 4294933822
-0.23955999 -0.68032002 -1.1936001 4294933822
-0.2441 -0.68065 -1.1950999 4294933822
-0.24002001 -0.68189001 -1.1973 4294933822
-0.23785999 -0.68200999 -1.1975 4294933822
-0.23559 -0.68164003 -1.1968 4294933822
-0.24421 -0.68074 -1.1962 4294933822
-0.24194001 -0.68036997 -1.1955 4294933822
-0.23548 -0.68074 -1.1962 4294933822
-0.23366 -0.68234003 -1.199 4294933822
-0.24445 -0.68132001 -1.1981 4294933822
-0.24171001 -0.67899001 -1.194 4294933822
-0.23968001 -0.6796 -1.1950999 4294933822
-0.23537 -0.67984998 -1.1956 4294933822
-0.23117 -0.68057001 -1.1968 4294933822
-0.24661 -0.68076998 -1.1982 4294933822
-0.24445 -0.68089998 -1.1984 4294933822
-0.24206001 -0.68004 -1.1969 4294933822
-0.24002001 -0.68066001 -1.198 4294933822
-0.23537 -0.67943001 -1.1957999 4294933822
-0.24673 -0.68084002 -1.1993001 4294933822
-0.24457 -0.68097001 -1.1995 4294933822
-0.24218 -0.68011999 -1.198 4294933822
-0.24002001 -0.68023998 -1.1982 4294933822
-0.23774999 -0.67987001 -1.1975 4294933822
-0.23548 -0.67949998 -1.1969 4294933822
-0.23333 -0.67962003 -1.1971 4294933822
-0.24685 -0.68085003 -1.2004 4294933822
-0.24433 -0.67951 -1.198 4294933822
-0.24218 -0.67964 -1.1982 4294933822
-0.23978999 -0.67878002 -1.1967 4294933822
-0.24673 -0.67988002 -1.1998 4294933822
-0.24445 -0.67952001 -1.1992 4294933822
-0.24241 -0.68014002 -1.2002 4294933822
-0.23978999 -0.67830002 -1.197 4294933822
-0.23537 -0.67804998 -1.1966 4294933822
-0.23366 -0.68013 -1.2002 4294933822
-0.24673 -0.67936999 -1.2000999 4294933822
-0.24457 -0.67949998 -1.2003 4294933822
-0.24218 -0.67865002 -1.1988 4294933822
-0.23582 -0.67949998 -1.2003 4294933822
-0.23355 -0.67913002 -1.1997 4294933822
-0.24673 -0.67886001 -1.2004 4294933822
-0.24206001 -0.67764002 -1.1982 4294933822
-0.24697 -0.67929 -1.2024 4294933822
