# .PCD v0.7 - Point Cloud Data file format
VERSION 0.7
FIELDS x y z rgb
SIZE 4 4 4 4
TYPE F F F U
COUNT 1 1 1 1
WIDTH 74
HEIGHT 1
VIEWPOINT 0 0 0 1 0 0 0
POINTS 74
DATA ascii
0.10977 -0.68392003 -1.1962 4286195704
0.10777 -0.68423003 -1.1975 4286195704
0.10977 -0.68356001 -1.1964 4286195704
0.1081 -0.68480003 -1.1995 4286195704
0.10098 -0.68294001 -1.1971999 4286195704
0.10361 -0.68423998 -1.1995 4286195704
0.10577 -0.68405998 -1.1992 4286195704
0.10794 -0.68388999 -1.1989 4286195704
0.1096 -0.68224001 -1.196 4286195704
0.096658997 -0.68286997 -1.1981 4286195704
0.098973997 -0.6832 -1.1986001 4286195704
0.10129 -0.68351001 -1.1992 4286195704
0.10361 -0.68383002 -1.1997 4286195704
0.10577 -0.68365997 -1.1993999 4286195704
0.10777 -0.68299001 -1.1983 4286195704
0.1101 -0.68330002 -1.1988 4286195704
0.11226 -0.68312001 -1.1985 4286195704
0.096813999 -0.68295997 -1.1991 4286195704
0.098973997 -0.68278998 -1.1988 4286195704
0.10129 -0.68311 -1.1993999 4286195704
0.10345 -0.68294001 -1.1991 4286195704
0.10561 -0.68276 -1.1988 4286195704
0.1081 -0.68356001 -1.2002 4286195704
0.11026 -0.68339002 -1.1999 4286195704
0.11226 -0.68272001 -1.1987 4286195704
0.096813999 -0.68255001 -1.1993999 4286195704
0.098973997 -0.68238997 -1.1991 4286195704
0.10129 -0.68269998 -1.1996 4286195704
0.10361 -0.68302 -1.2002 4286195704
0.10794 -0.68267 -1.1996 4286195704
0.10993 -0.68199998 -1.1984 4286195704
0.11226 -0.68230999 -1.1989 4286195704
0.096658997 -0.68166 -1.1987 4286195704
0.098973997 -0.68198001 -1.1993001 4286195704
0.10145 -0.68278998 -1.2007 4286195704
0.10361 -0.68261999 -1.2004 4286195704
0.10794 -0.68226999 -1.1998 4286195704
0.11043 -0.68305999 -1.2012 4286195704
0.11259 -0.68287998 -1.2009 4286195704
0.11475 -0.68269998 -1.2006 4286195704
0.099131003 -0.68204999 -1.2004 4286195704
0.10129 -0.68188 -1.2000999 4286195704
0.10361 -0.68220001 -1.2007 4286195704
0.10794 -0.68185002 -1.2 4286195704
0.1101 -0.68167001 -1.1997 4286195704
0.10794 -0.68142998 -1.2003 4286195704
0.11043 -0.68221998 -1.2017 4286195704
0.11475 -0.68186003 -1.201 4286195704
0.099287003 -0.68164003 -1.2018 4286195704
0.10098 -0.68001002 -1.1989 4286195704
0.11026 -0.68125999 -1.2011 4286195704
0.11526 -0.68283999 -1.2039 4286195704
0.11692 -0.68120003 -1.201 4286195704
0.11292 -0.68204999 -1.2036 4286195704
0.11526 -0.68235999 -1.2042 4286195704
0.11692 -0.68071997 -1.2013 4286195704
0.11309 -0.68203002 -1.2048 4286195704
0.11509 -0.68136001 -1.2036 4286195704
0.11692 -0.68020999 -1.2016 4286195704
0.11692 -0.67969 -1.2019 4286195704
0.11276 -0.68000001 -1.2036999 4286195704
0.11442 -0.67835999 -1.2007999 4286195704
0.11326 -0.68090999 -1.2065001 4286195704
0.11458 -0.67733002 -1.2025 4286195704
0.11076 -0.67853999 -1.206 4286195704
0.11326 -0.67932999 -1.2074 4286195704
0.11158 -0.68033999 -1.2107 4286195704
0.11376 -0.68015999 -1.2104 4286195704
0.11593 -0.67997998 -1.21 4286195704
0.10642 -0.67767 -1.2072999 4286195704
0.11359 -0.67907 -1.2098 4286195704
0.11109 -0.67767 -1.2088 4286195704
0.11326 -0.67749 -1.2085 4286195704
0.11276 -0.67546999 -1.2062 4286195704
