# .PCD v0.7 - Point Cloud Data file format
VERSION 0.7
FIELDS x y z rgb
SIZE 4 4 4 4
TYPE F F F U
COUNT 1 1 1 1
WIDTH 65
HEIGHT 1
VIEWPOINT 0 0 0 1 0 0 0
POINTS 65
DATA ascii
0.28316 -0.68516999 -1.1955 4290220626
0.28099999 -0.68491 -1.1964 4290220626
0.27941999 -0.68518001 -1.1992 4290220626
0.28650001 -0.68514001 -1.1991 4290220626
0.27755001 -0.68557 -1.2009 4290220626
0.27970999 -0.68523997 -1.2003 4290220626
0.28217 -0.68539 -1.2005 4290220626
0.28650001 -0.68472999 -1.1993999 4290220626
0.28806001 -0.68344998 -1.1971 4290220626
0.27970999 -0.68482 -1.2005 4290220626
0.28217 -0.68497002 -1.2007999 4290220626
0.28433001 -0.68463999 -1.2002 4290220626
0.28 -0.68488997 -1.2016 4290220626
0.28158 -0.68361002 -1.1993999 4290220626
0.28433001 -0.68423003 -1.2004 4290220626
0.28619999 -0.68343002 -1.199 4290220626
0.27697 -0.68339002 -1.1999 4290220626
0.27941999 -0.68353999 -1.2002 4290220626
0.28187999 -0.68368 -1.2004 4290220626
0.28404 -0.68335003 -1.1998 4290220626
0.28619999 -0.68302 -1.1993001 4290220626
0.27755001 -0.68392998 -1.2018 4290220626
0.28 -0.68408 -1.202 4290220626
0.28217 -0.68374997 -1.2015001 4290220626
0.28463 -0.6839 -1.2017 4290220626
0.27755001 -0.68352002 -1.202 4290220626
0.27970999 -0.6832 -1.2014 4290220626
0.28217 -0.68335003 -1.2017 4290220626
0.28492001 -0.68396002 -1.2028 4290220626
0.27726001 -0.68263 -1.2014 4290220626
0.27941999 -0.68230999 -1.2009 4290220626
0.28158 -0.68198001 -1.2003 4290220626
0.28463 -0.68307 -1.2022001 4290220626
0.27941999 -0.68189001 -1.2011 4290220626
0.28158 -0.68155998 -1.2005 4290220626
0.27812999 -0.68314999 -1.2043999 4290220626
0.28058001 -0.68330002 -1.2047 4290220626
0.28246 -0.6825 -1.2033 4290220626
0.28433001 -0.68169999 -1.2019 4290220626
0.27840999 -0.68313998 -1.2055 4290220626
0.28058001 -0.68281001 -1.205 4290220626
0.28275001 -0.68248999 -1.2043999 4290220626
0.28433001 -0.68122 -1.2022001 4290220626
0.28 -0.68136001 -1.2036 4290220626
0.28246 -0.68150002 -1.2039 4290220626
0.28433001 -0.6807 -1.2024 4290220626
0.27913001 -0.67943001 -1.2014 4290220626
0.28246 -0.68098998 -1.2041 4290220626
0.28492001 -0.68112999 -1.2043999 4290220626
0.28334001 -0.68131 -1.2072999 4290220626
0.27812999 -0.67957002 -1.2065001 4290220626
0.28246 -0.67891997 -1.2053 4290220626
0.28492001 -0.67905998 -1.2056 4290220626
0.28246 -0.67831999 -1.2056 4290220626
0.28492001 -0.67846 -1.2059 4290220626
0.28086999 -0.67835999 -1.2086 4290220626
0.28086999 -0.67774999 -1.2089 4290220626
0.28117001 -0.67763001 -1.2101001 4290220626
0.28305 -0.67684001 -1.2086999 4290220626
0.28275001 -0.67579001 -1.2082 4290220626
0.28492001 -0.67546999 -1.2076 4290220626
0.28174999 -0.67727 -1.2125 4290220626
0.28145999 -0.67606997 -1.212 4290220626
0.28145999 -0.67546999 -1.2124 4290220626
0.28145999 -0.67339998 -1.2135 4290220626
