# .PCD v0.7 - Point Cloud Data file format
VERSION 0.7
FIELDS x y z rgb
SIZE 4 4 4 4
TYPE F F F U
COUNT 1 1 1 1
WIDTH 69
HEIGHT 1
VIEWPOINT 0 0 0 1 0 0 0
POINTS 69
DATA ascii
-0.52129 0.0087762 -1.0773 4292179653
-0.52209002 0.0099975998 -1.0747 4292179653
-0.52046001 0.010004 -1.0755 4292179653
-0.52292001 0.011191 -1.0765001 4292179653
-0.52170002 0.011209 -1.0782 4292179653
-0.52209002 0.012139 -1.0747 4292179653
-0.52129 0.012168 -1.0773 4292179653
-0.51719999 0.012164 -1.0769 4292179653
-0.52126002 0.013139 -1.0729001 4292179653
-0.52942997 0.014188 -1.0735 4292179653
-0.52086997 0.014225 -1.0763 4292179653
-0.51719999 0.014233 -1.0769 4292179653
-0.51801002 0.015259 -1.0743001 4292179653
-0.51719999 0.015295 -1.0769 4292179653
-0.53070003 0.016396999 -1.0762 4292179653
-0.52372003 0.016362 -1.0739 4292179653
-0.52166998 0.01636 -1.0737 4292179653
-0.51921999 0.016342999 -1.0727 4292179653
-0.51801002 0.016368 -1.0743001 4292179653
-0.51678997 0.016393 -1.0759 4292179653
-0.51678997 0.01646 -1.0803 4292179653
-0.50133002 0.016396999 -1.0762 4292179653
-0.53148001 0.017633 -1.0736001 4292179653
-0.52859002 0.0176 -1.0716 4292179653
-0.52613002 0.017583 -1.0706 4292179653
-0.52491999 0.01761 -1.0721999 4292179653
-0.52372003 0.017636999 -1.0739 4292179653
-0.52209002 0.017650001 -1.0746 4292179653
-0.52046001 0.017662 -1.0754 4292179653
-0.51801002 0.017643999 -1.0743001 4292179653
-0.51638001 0.017656 -1.075 4292179653
-0.51433998 0.017653 -1.0748 4292179653
-0.51270998 0.017665001 -1.0756 4292179653
-0.51148999 0.017692 -1.0772001 4292179653
-0.50537997 0.017681999 -1.0766 4292179653
-0.53267998 0.018595001 -1.0719 4292179653
-0.53064001 0.018593 -1.0718 4292179653
-0.52901 0.018606 -1.0725 4292179653
-0.52654999 0.018587001 -1.0714999 4292179653
-0.52408999 0.018569 -1.0704 4292179653
-0.52205002 0.018565999 -1.0702 4292179653
-0.52166998 0.018626001 -1.0737 4292179653
-0.52004999 0.018639 -1.0743999 4292179653
-0.51883 0.018668 -1.0761 4292179653
-0.51638001 0.018649001 -1.075 4292179653
-0.51353002 0.018614 -1.073 4292179653
-0.51148999 0.018611001 -1.0728 4292179653
-0.51068002 0.018655 -1.0753 4292179653
-0.50579 0.018692 -1.0775 4292179653
-0.52859002 0.019661 -1.0716 4292179653
-0.52654999 0.019657999 -1.0714 4292179653
-0.5266 0.019739 -1.0757999 4292179653
-0.52166998 0.019699 -1.0737 4292179653
-0.51921999 0.019680001 -1.0726 4292179653
-0.51677001 0.01966 -1.0714999 4292179653
-0.51515001 0.019672999 -1.0721999 4292179653
-0.51353002 0.019686 -1.073 4292179653
-0.51190001 0.0197 -1.0737 4292179653
-0.51068002 0.01973 -1.0753 4292179653
-0.52613002 0.020688999 -1.0705 4292179653
-0.52451003 0.020703999 -1.0713 4292179653
-0.52288002 0.020718001 -1.072 4292179653
-0.52126002 0.020733001 -1.0727 4292179653
-0.51921999 0.020729 -1.0726 4292179653
-0.5176 0.020742999 -1.0733 4292179653
-0.51473999 0.020705 -1.0713 4292179653
-0.51312 0.020718999 -1.072 4292179653
-0.51190001 0.020749999 -1.0737 4292179653
-0.51068002 0.020781999 -1.0753 4292179653
