# .PCD v0.7 - Point Cloud Data file format
VERSION 0.7
FIELDS x y z rgb
SIZE 4 4 4 4
TYPE F F F U
COUNT 1 1 1 1
WIDTH 300
HEIGHT 1
VIEWPOINT 0 0 0 1 0 0 0
POINTS 300
DATA ascii
0.041740999 -0.68462998 -1.1974 4281043936
0.041740999 -0.68427002 -1.1976 4281043936
0.03991 -0.68340999 -1.2018 4281043936
0.041963998 -0.68279999 -1.2007 4281043936
0.03991 -0.68299001 -1.2021 4281043936
0.041963998 -0.68238002 -1.201 4281043936
0.035473 -0.68230999 -1.2018 4281043936
0.03991 -0.68256998 -1.2023 4281043936
0.035686001 -0.68281001 -1.2038 4281043936
0.037636999 -0.68172002 -1.2019 4281043936
0.041740999 -0.68049997 -1.1998 4281043936
0.035473 -0.68134999 -1.2024 4281043936
0.037744999 -0.68172002 -1.2029999 4281043936
0.037636999 -0.68071997 -1.2025 4281043936
0.039801002 -0.68059999 -1.2023 4281043936
0.037528999 -0.67971998 -1.2019 4281043936
0.03991 -0.68058002 -1.2034 4281043936
0.053133 -0.68081999 -1.2038 4281043936
0.035473 -0.67923999 -1.2036 4281043936
0.037636999 -0.67912 -1.2034 4281043936
0.035473 -0.67874998 -1.2039 4281043936
0.037744999 -0.67912 -1.2045 4281043936
0.035686001 -0.67922997 -1.2059 4281043936
0.037960999 -0.67961001 -1.2065001 4281043936
0.04002 -0.67900002 -1.2055 4281043936
0.042298 -0.67936999 -1.2061 4281043936
0.044238999 -0.67826998 -1.2042 4281043936
0.046518002 -0.67864001 -1.2048 4281043936
0.027012 -0.67907 -1.207 4281043936
0.033518001 -0.67874998 -1.2064 4281043936
0.035686001 -0.67862999 -1.2062 4281043936
0.037852999 -0.67852002 -1.206 4281043936
0.04002 -0.67839998 -1.2058001 4281043936
0.042298 -0.67877001 -1.2064 4281043936
0.044578999 -0.67913997 -1.2071 4281043936
0.046633001 -0.67852998 -1.206 4281043936
0.050967 -0.67828 -1.2056 4281043936
0.053252999 -0.67864001 -1.2062 4281043936
0.02908 -0.67786998 -1.2063 4281043936
0.031555001 -0.67922002 -1.2086999 4281043936
0.033518001 -0.67812997 -1.2067 4281043936
0.035792001 -0.67851001 -1.2074 4281043936
0.037852999 -0.67790997 -1.2063 4281043936
0.040348999 -0.67925 -1.2086999 4281043936
0.042408999 -0.67865002 -1.2077 4281043936
0.044691999 -0.67900997 -1.2083 4281043936
0.046633001 -0.67791998 -1.2064 4281043936
0.048799999 -0.67778999 -1.2061 4281043936
0.050730001 -0.6767 -1.2042 4281043936
0.053252999 -0.67803001 -1.2066 4281043936
0.05542 -0.67790002 -1.2063 4281043936
0.027012 -0.67785001 -1.2077 4281043936
0.02908 -0.67725998 -1.2066 4281043936
0.033309001 -0.67654997 -1.2054 4281043936
0.035579 -0.67692 -1.206 4281043936
0.037744999 -0.67681003 -1.2058001 4281043936
0.040348999 -0.67864001 -1.2091 4281043936
0.041852001 -0.67559999 -1.2036999 4281043936
0.044691999 -0.67839998 -1.2086999 4281043936
0.046863001 -0.67828 -1.2084 4281043936
0.049033001 -0.67816001 -1.2082 4281043936
0.051084999 -0.67754 -1.2071 4281043936
0.053133 -0.67693001 -1.206 4281043936
0.055663999 -0.67826003 -1.2084 4281043936
0.026814001 -0.67627001 -1.2063 4281043936
0.029181 -0.67712998 -1.2078 4281043936
0.031350002 -0.67702001 -1.2076 4281043936
0.033413 -0.67642999 -1.2066 4281043936
0.035686001 -0.67680001 -1.2072001 4281043936
0.038068999 -0.67765999 -1.2088 4281043936
0.040459 -0.67851001 -1.2103 4281043936
0.042408999 -0.67742002 -1.2083 4281043936
0.044805001 -0.67828 -1.2099 4281043936
0.046748001 -0.67717999 -1.2079 4281043936
0.048916999 -0.67706001 -1.2077 4281043936
0.050848 -0.67596 -1.2057 4281043936
0.053373002 -0.67729002 -1.2081 4281043936
0.055663999 -0.67764997 -1.2086999 4281043936
0.026814001 -0.67567998 -1.2066 4281043936
0.031658001 -0.67790002 -1.2106 4281043936
0.033936001 -0.67826998 -1.2112 4281043936
0.036003999 -0.67768002 -1.2102 4281043936
0.038176998 -0.67755997 -1.21 4281043936
0.040238999 -0.67695999 -1.2089 4281043936
0.044466 -0.67624003 -1.2076 4281043936
0.047093 -0.67806 -1.2108001 4281043936
0.049150001 -0.67745 -1.2097 4281043936
0.051440001 -0.67781001 -1.2104 4281043936
0.053732999 -0.67817003 -1.211 4281043936
0.055785999 -0.67755002 -1.2099 4281043936
0.026814001 -0.67510003 -1.2069 4281043936
0.033831 -0.67720997 -1.2107 4281043936
0.036111001 -0.67758 -1.2114 4281043936
0.042408999 -0.67625999 -1.209 4281043936
0.046748001 -0.67602003 -1.2086 4281043936
0.049033001 -0.67637998 -1.2092 4281043936
0.051321998 -0.67673999 -1.2099 4281043936
0.053493001 -0.67660999 -1.2096 4281043936
0.055663999 -0.67648 -1.2094001 4281043936
0.02908 -0.67477 -1.2079999 4281043936
0.031246999 -0.67466003 -1.2078 4281043936
0.033727001 -0.67601001 -1.2102 4281043936
0.036003999 -0.67637998 -1.2108999 4281043936
0.046748001 -0.67531002 -1.209 4281043936
0.049033001 -0.67567003 -1.2096 4281043936
0.050967 -0.67457002 -1.2076 4281043936
0.053613 -0.67637998 -1.2108999 4281043936
0.055785999 -0.67624998 -1.2107 4281043936
0.058081999 -0.67660999 -1.2113 4281043936
0.027409 -0.67657 -1.2129 4281043936
0.029585 -0.67646998 -1.2128 4281043936
0.031555001 -0.67539001 -1.2108001 4281043936
0.047208 -0.67651999 -1.2128 4281043936
0.049267001 -0.67591 -1.2117 4281043936
0.051204 -0.67482001 -1.2098 4281043936
0.053373002 -0.67469001 -1.2096 4281043936
0.056030001 -0.67649001 -1.2128 4281043936
0.057957999 -0.67540002 -1.2108001 4281043936
0.027509 -0.67646003 -1.2141 4281043936
0.029686 -0.67635 -1.214 4281043936
0.031863 -0.67624003 -1.2138 4281043936
0.033727001 -0.67467999 -1.211 4281043936
0.042631999 -0.67518997 -1.2119 4281043936
0.045371 -0.67749 -1.216 4281043936
0.047323 -0.67640001 -1.214 4281043936
0.051204 -0.67422003 -1.2101001 4281043936
0.053373002 -0.67409003 -1.2099 4281043936
0.056030001 -0.67589003 -1.2131 4281043936
0.058205001 -0.67575997 -1.2129 4281043936
0.060504999 -0.67611003 -1.2135 4281043936
0.031658001 -0.67467999 -1.2124 4281043936
0.033727001 -0.67408001 -1.2113 4281043936
0.042744 -0.67506999 -1.2131 4281043936
0.044918001 -0.67495 -1.2129 4281043936
0.047208 -0.67531002 -1.2135 4281043936
0.049150001 -0.67422998 -1.2115 4281043936
0.051440001 -0.67457998 -1.2122 4281043936
0.053373002 -0.67348999 -1.2102 4281043936
0.056030001 -0.67528999 -1.2135 4281043936
0.058205001 -0.67515999 -1.2132 4281043936
0.060756002 -0.67648 -1.2156 4281043936
0.029585 -0.67453998 -1.2138 4281043936
0.031863 -0.67491001 -1.2145 4281043936
0.038500998 -0.67505997 -1.2148 4281043936
0.040568002 -0.67445999 -1.2137001 4281043936
0.044918001 -0.67422003 -1.2133 4281043936
0.047323 -0.67506999 -1.2148 4281043936
0.049033001 -0.67300999 -1.2111 4281043936
0.051559001 -0.67434001 -1.2135 4281043936
0.053732999 -0.67421001 -1.2132 4281043936
0.056395002 -0.67601001 -1.2165 4281043936
0.058451999 -0.67540002 -1.2154 4281043936
0.060756002 -0.67574 -1.216 4281043936
0.062936001 -0.67561001 -1.2158 4281043936
0.065114997 -0.67546999 -1.2155 4281043936
0.027310001 -0.67341 -1.2136 4281043936
0.029585 -0.67378998 -1.2142 4281043936
0.031863 -0.67416 -1.2149 4281043936
0.045258 -0.67492002 -1.2163 4281043936
0.047323 -0.67431998 -1.2151999 4281043936
0.0495 -0.6742 -1.215 4281043936
0.051559001 -0.67359 -1.2139 4281043936
0.053853001 -0.67394 -1.2145 4281043936
0.056030001 -0.67382002 -1.2143 4281043936
0.058205001 -0.67368001 -1.2141 4281043936
0.060504999 -0.67403001 -1.2147 4281043936
0.062936001 -0.67486 -1.2162 4281043936
0.029686 -0.67352998 -1.2155 4281043936
0.042854998 -0.67334002 -1.2151999 4281043936
0.045371 -0.67466003 -1.2176 4281043936
0.047208 -0.67309999 -1.2147 4281043936
0.0495 -0.67344999 -1.2154 4281043936
0.051559001 -0.67285001 -1.2143 4281043936
0.053732999 -0.67272002 -1.2141 4281043936
0.056030001 -0.67307001 -1.2147 4281043936
0.058081999 -0.67246002 -1.2136 4281043936
0.060380001 -0.67281002 -1.2142 4281043936
0.062936001 -0.67412001 -1.2165999 4281043936
0.065243997 -0.67445999 -1.2172 4281043936
0.036003999 -0.67150003 -1.2136 4281043936
0.038176998 -0.67137998 -1.2134 4281043936
0.040459 -0.67175001 -1.2141 4281043936
0.042854998 -0.67259002 -1.2156 4281043936
0.045031998 -0.67246997 -1.2154 4281043936
0.047323 -0.67282999 -1.216 4281043936
0.049617 -0.67319 -1.2167 4281043936
0.051677 -0.67259002 -1.2156 4281043936
0.053853001 -0.67246002 -1.2153 4281043936
0.056150999 -0.67281002 -1.216 4281043936
0.058329001 -0.67268002 -1.2157 4281043936
0.060504999 -0.67255002 -1.2155 4281043936
0.063317001 -0.67482001 -1.2196 4281043936
0.065243997 -0.67372 -1.2176 4281043936
0.040677998 -0.67199999 -1.2162 4281043936
0.043078002 -0.67284 -1.2177 4281043936
0.045258 -0.67273003 -1.2175 4281043936
0.047437999 -0.67259997 -1.2173001 4281043936
0.049849998 -0.67343998 -1.2187999 4281043936
0.051794998 -0.67236 -1.2168 4281043936
0.054214001 -0.67319 -1.2183 4281043936
0.060881 -0.67328 -1.2185 4281043936
0.063063003 -0.67315 -1.2183 4281043936
0.065114997 -0.67253 -1.2171 4281043936
0.041007001 -0.67273003 -1.2192 4281043936
0.043078002 -0.67212999 -1.2181 4281043936
0.045258 -0.67201 -1.2179 4281043936
0.047323 -0.67141002 -1.2168 4281043936
0.049849998 -0.67273003 -1.2192 4281043936
0.051794998 -0.67164999 -1.2172 4281043936
0.054094002 -0.67199999 -1.2179 4281043936
0.060631 -0.67161 -1.2172 4281043936
0.062808998 -0.67148 -1.2169 4281043936
0.064857997 -0.67085999 -1.2158 4281043936
0.041007001 -0.67194003 -1.2196 4281043936
0.043078002 -0.67133999 -1.2185 4281043936
0.045145001 -0.67074001 -1.2175 4281043936
0.047437999 -0.67110002 -1.2181 4281043936
0.049617 -0.67097998 -1.2179 4281043936
0.051913999 -0.67133999 -1.2185 4281043936
0.054453999 -0.67264998 -1.2209001 4281043936
0.056882001 -0.67347997 -1.2224 4281043936
0.062808998 -0.67069 -1.2174 4281043936
0.065114997 -0.67102998 -1.2180001 4281043936
0.045371 -0.67091 -1.2196 4281043936
0.047667 -0.67127001 -1.2203 4281043936
0.049849998 -0.67115003 -1.2201 4281043936
0.05215 -0.67150003 -1.2207 4281043936
0.054453999 -0.67185003 -1.2213 4281043936
0.056882001 -0.67268002 -1.2229 4281043936
0.060504999 -0.66955 -1.2172 4281043936
0.042966999 -0.66935003 -1.2185 4281043936
0.045258 -0.66970998 -1.2192 4281043936
0.047323 -0.66911 -1.2181 4281043936
0.049849998 -0.67041999 -1.2205 4281043936
0.05215 -0.67078 -1.2211 4281043936
0.054453999 -0.67113 -1.2217 4281043936
0.057004001 -0.67242998 -1.2241 4281043936
0.043301001 -0.67005998 -1.2215 4281043936
0.045483999 -0.66993999 -1.2213 4281043936
0.047782 -0.67030001 -1.222 4281043936
0.049849998 -0.66970003 -1.2209001 4281043936
0.052269001 -0.67053002 -1.2224 4281043936
0.054453999 -0.67040002 -1.2221 4281043936
0.056882001 -0.67123002 -1.2236 4281043936
0.043524001 -0.67012 -1.2237999 4281043936
0.045711 -0.67000002 -1.2235 4281043936
0.048126999 -0.67083001 -1.2251 4281043936
0.049966998 -0.66927999 -1.2222 4281043936
0.052269001 -0.66962999 -1.2229 4281043936
0.054453999 -0.66949999 -1.2226 4281043936
0.056882001 -0.67032999 -1.2241 4281043936
0.043524001 -0.6692 -1.2243 4281043936
0.045711 -0.66908002 -1.224 4281043936
0.048012 -0.66943002 -1.2247 4281043936
0.0502 -0.66930997 -1.2244999 4281043936
0.052506 -0.66965997 -1.2251 4281043936
0.054574002 -0.66905999 -1.224 4281043936
0.056639001 -0.66846001 -1.2229 4281043936
0.043078002 -0.66649997 -1.2212 4281043936
0.045371 -0.66685998 -1.2219 4281043936
0.047897 -0.66816998 -1.2242 4281043936
0.0502 -0.66851997 -1.2249 4281043936
0.052506 -0.66887999 -1.2255 4281043936
0.054694001 -0.66874999 -1.2253 4281043936
0.057004001 -0.66909999 -1.2259001 4281043936
0.043301001 -0.66667002 -1.2234 4281043936
0.045937002 -0.66845 -1.2266001 4281043936
0.048241999 -0.66881001 -1.2273 4281043936
0.050549999 -0.66916001 -1.2279 4281043936
0.052386999 -0.66760999 -1.2251 4281043936
0.054694001 -0.66795999 -1.2257 4281043936
0.056882001 -0.66782999 -1.2255 4281043936
0.059317 -0.66864997 -1.227 4281043936
0.043524001 -0.66671002 -1.2256 4281043936
0.045483999 -0.66565001 -1.2236 4281043936
0.048012 -0.66694999 -1.226 4281043936
0.0502 -0.66683 -1.2258 4281043936
0.052623998 -0.66764998 -1.2273 4281043936
0.055055 -0.66847998 -1.2289 4281043936
0.057126001 -0.66786999 -1.2277 4281043936
0.059193999 -0.66727 -1.2266001 4281043936
0.045711 -0.66567999 -1.2259001 4281043936
0.047897 -0.66556001 -1.2257 4281043936
0.049849998 -0.66448998 -1.2237 4281043936
0.052623998 -0.66672999 -1.2278 4281043936
0.054814 -0.66661 -1.2276 4281043936
0.057248 -0.66742998 -1.2291 4281043936
0.059317 -0.66681999 -1.228 4281043936
0.045937002 -0.66575003 -1.2280999 4281043936
0.050432999 -0.66597998 -1.2285 4281043936
0.052623998 -0.66584998 -1.2283 4281043936
0.054694001 -0.66526002 -1.2272 4281043936
0.057248 -0.66654998 -1.2296 4281043936
0.0502 -0.66415 -1.2273 4281043936
0.052506 -0.6645 -1.2279 4281043936
0.054814 -0.66485 -1.2286 4281043936
0.057126001 -0.6652 -1.2292 4281043936
0.0502 -0.66320997 -1.2278 4281043936
0.052742001 -0.66451001 -1.2302001 4281043936
0.054933999 -0.66438001 -1.2299 4281043936
