# .PCD v0.7 - Point Cloud Data file format
VERSION 0.7
FIELDS x y z rgb
SIZE 4 4 4 4
TYPE F F F U
COUNT 1 1 1 1
WIDTH 105
HEIGHT 1
VIEWPOINT 0 0 0 1 0 0 0
POINTS 105
DATA ascii
-0.67268002 -0.68168002 -1.1894 4289381382
-0.67482001 -0.6803 -1.189 4289381382
-0.67268002 -0.68045002 -1.1901 4289381382
-0.67268002 -0.68010002 -1.1903 4289381382
-0.67137998 -0.68067002 -1.1932 4289381382
-0.67396998 -0.67747003 -1.1885999 4289381382
-0.67268002 -0.67887002 -1.191 4289381382
-0.67053002 -0.67935997 -1.1919 4289381382
-0.6688 -0.68031001 -1.1935 4289381382
-0.66665 -0.68080002 -1.1944 4289381382
-0.66408002 -0.68084002 -1.1945 4289381382
-0.67095 -0.67940998 -1.1928999 4289381382
-0.66965002 -0.68080002 -1.1954 4289381382
-0.66749001 -0.68129998 -1.1962 4289381382
-0.66491997 -0.68133998 -1.1963 4289381382
-0.67095 -0.67900997 -1.1931 4289381382
-0.66754001 -0.67816001 -1.1916 4289381382
-0.66540003 -0.67865002 -1.1925 4289381382
-0.66367 -0.67958999 -1.1942 4289381382
-0.67095 -0.67860001 -1.1934 4289381382
-0.66497999 -0.6778 -1.1919 4289381382
-0.67352998 -0.67813998 -1.1935 4289381382
-0.6688 -0.67868 -1.1945 4289381382
-0.66150999 -0.67925 -1.1955 4289381382
-0.67439002 -0.67588001 -1.1905 4289381382
-0.67268002 -0.67682999 -1.1921999 4289381382
-0.67095 -0.67777002 -1.1938 4289381382
-0.67352998 -0.67725003 -1.194 4289381382
-0.66922998 -0.67824 -1.1957999 4289381382
-0.66665 -0.67828 -1.1957999 4289381382
-0.67694998 -0.67760998 -1.1957999 4289381382
-0.67479998 -0.67811 -1.1967 4289381382
-0.66582 -0.67690003 -1.1945 4289381382
-0.66109997 -0.67742997 -1.1955 4289381382
-0.67694998 -0.6771 -1.1961 4289381382
-0.67436999 -0.67715001 -1.1962 4289381382
-0.67651999 -0.67614001 -1.1956 4289381382
-0.67436999 -0.67663997 -1.1964999 4289381382
-0.67565 -0.67743999 -1.1991 4289381382
-0.68208998 -0.67812002 -1.2016 4289381382
-0.67565 -0.67689002 -1.1993999 4289381382
-0.68382001 -0.67668003 -1.2002 4289381382
-0.68166 -0.67719001 -1.2011 4289381382
-0.67949998 -0.67769003 -1.202 4289381382
-0.68469 -0.67435998 -1.1971999 4289381382
-0.68641001 -0.67553997 -1.2007 4289381382
-0.68382001 -0.67559999 -1.2007999 4289381382
-0.67565 -0.67532003 -1.2003 4289381382
-0.68900001 -0.67487001 -1.2009 4289381382
-0.68641001 -0.67492998 -1.201 4289381382
-0.68900001 -0.67426002 -1.2013 4289381382
-0.68684 -0.67475998 -1.2022001 4289381382
-0.68382001 -0.67438 -1.2015001 4289381382
-0.68166 -0.67488003 -1.2024 4289381382
-0.68943 -0.67409003 -1.2024 4289381382
-0.68769997 -0.67504001 -1.2041 4289381382
-0.69028997 -0.67439002 -1.2043 4289381382
-0.68769997 -0.67445999 -1.2043999 4289381382
-0.69115001 -0.67198998 -1.2014 4289381382
-0.68900001 -0.67249 -1.2023 4289381382
-0.68684 -0.67299998 -1.2032 4289381382
-0.69159001 -0.67442 -1.2074 4289381382
-0.68856001 -0.67404997 -1.2067 4289381382
-0.69159001 -0.67369998 -1.2078 4289381382
-0.68941998 -0.6742 -1.2086999 4289381382
-0.69288999 -0.67172003 -1.2056 4289381382
-0.68856001 -0.67273003 -1.2074 4289381382
-0.69202 -0.67023998 -1.2043999 4289381382
-0.69028997 -0.67119002 -1.2061 4289381382
-0.68856001 -0.67212999 -1.2078 4289381382
-0.69244999 -0.66996002 -1.2056 4289381382
-0.69116002 -0.67133999 -1.2081 4289381382
-0.68899 -0.67184001 -1.209 4289381382
-0.69331998 -0.67009002 -1.2076 4289381382
-0.69202 -0.67146999 -1.2101001 4289381382
-0.68899 -0.67110002 -1.2094001 4289381382
-0.69419003 -0.67022002 -1.2096 4289381382
-0.69244999 -0.67117 -1.2113 4289381382
-0.68941998 -0.67079002 -1.2106 4289381382
-0.69419003 -0.66948998 -1.21 4289381382
-0.69202 -0.66999 -1.2108999 4289381382
-0.68941998 -0.67005002 -1.211 4289381382
-0.69462001 -0.66921997 -1.2111 4289381382
-0.69159001 -0.66885 -1.2105 4289381382
-0.68984997 -0.66978002 -1.2122 4289381382
-0.69116002 -0.66769999 -1.2101001 4289381382
-0.68899 -0.66820002 -1.211 4289381382
-0.69071001 -0.66916001 -1.2146 4289381382
-0.69244999 -0.66744 -1.2133 4289381382
-0.69071001 -0.66837001 -1.215 4289381382
-0.69202 -0.66627997 -1.2129 4289381382
-0.69071001 -0.66764998 -1.2154 4289381382
-0.69159001 -0.66513002 -1.2125 4289381382
-0.68941998 -0.66562998 -1.2134 4289381382
-0.69114 -0.66646999 -1.2171 4289381382
-0.68897003 -0.66696 -1.2180001 4289381382
-0.69114 -0.66477001 -1.2180001 4289381382
-0.69071001 -0.66355002 -1.2177 4289381382
-0.68765002 -0.66494 -1.2223001 4289381382
-0.68983001 -0.66351998 -1.2219 4289381382
-0.68678999 -0.66315001 -1.2213 4289381382
-0.68810999 -0.66092998 -1.2192 4289381382
-0.68678999 -0.66228002 -1.2217 4289381382
-0.68940002 -0.66135001 -1.2221 4289381382
-0.68678999 -0.66140997 -1.2222 4289381382
