# .PCD v0.7 - Point Cloud Data file format
VERSION 0.7
FIELDS x y z rgb
SIZE 4 4 4 4
TYPE F F F U
COUNT 1 1 1 1
WIDTH 66
HEIGHT 1
VIEWPOINT 0 0 0 1 0 0 0
POINTS 66
DATA ascii
-0.71182001 -0.075549997 -1.0971 4289265041
-0.71015 -0.075623997 -1.0982 4289265041
-0.71570998 -0.074376002 -1.0959001 4289265041
-0.71236002 -0.074522004 -1.098 4289265041
-0.70960999 -0.074479997 -1.0974 4289265041
-0.71344 -0.073513001 -1.0998 4289265041
-0.71069002 -0.073472999 -1.0992 4289265041
-0.70848 -0.073487997 -1.0994 4289265041
-0.71679002 -0.072214998 -1.0977 4289265041
-0.71349001 -0.072120003 -1.0962 4289265041
-0.70853001 -0.072094999 -1.0959001 4289265041
-0.70633 -0.072109997 -1.0961 4289265041
-0.70358998 -0.072067998 -1.0955 4289265041
-0.70030999 -0.071970999 -1.094 4289265041
-0.71349001 -0.071010001 -1.0963 4289265041
-0.71182001 -0.071079001 -1.0974 4289265041
-0.70960999 -0.071093999 -1.0976 4289265041
-0.70686001 -0.071053997 -1.097 4289265041
-0.70411998 -0.071014002 -1.0964 4289265041
-0.70085001 -0.070918001 -1.0949 4289265041
-0.71403998 -0.069982 -1.0972 4289265041
-0.71182001 -0.069996998 -1.0975 4289265041
-0.71015 -0.070064999 -1.0985 4289265041
-0.70686001 -0.069972001 -1.0971 4289265041
-0.70411998 -0.069931999 -1.0964 4289265041
-0.70191997 -0.069945998 -1.0967 4289265041
-0.71625 -0.068866998 -1.0971 4289265041
-0.71403998 -0.068882003 -1.0973001 4289265041
-0.71236002 -0.068948999 -1.0984 4289265041
-0.708 -0.068752997 -1.0951999 4289265041
-0.70472002 -0.068660997 -1.0937999 4289265041
-0.70358998 -0.068779998 -1.0957 4289265041
-0.70138001 -0.068792999 -1.0959001 4289265041
-0.71349001 -0.067717999 -1.0965 4289265041
-0.71073997 -0.067681 -1.0959001 4289265041
-0.70960999 -0.067799002 -1.0978 4289265041
-0.70578998 -0.067657001 -1.0955 4289265041
-0.70305002 -0.067617998 -1.0949 4289265041
-0.71740001 -0.066310003 -1.0917 4289265041
-0.71627998 -0.066426001 -1.0936 4289265041
-0.71461999 -0.066491999 -1.0947 4289265041
-0.71020001 -0.066519998 -1.0951 4289265041
-0.70907003 -0.066636004 -1.0971 4289265041
-0.70633 -0.066597998 -1.0964 4289265041
-0.70411998 -0.066611998 -1.0967 4289265041
-0.71461999 -0.065383002 -1.0947 4289265041
-0.71078002 -0.065246999 -1.0925 4289265041
-0.71020001 -0.065411001 -1.0951999 4289265041
-0.70853001 -0.065475002 -1.0963 4289265041
-0.70686001 -0.065537997 -1.0973001 4289265041
-0.70251 -0.065350004 -1.0942 4289265041
-0.71020001 -0.064350002 -1.0953 4289265041
-0.70638001 -0.064214997 -1.0930001 4289265041
-0.71353 -0.063197002 -1.0932 4289265041
-0.70965999 -0.063272998 -1.0944999 4289265041
-0.708 -0.063334003 -1.0956 4289265041
-0.71574003 -0.062116999 -1.0930001 4289265041
-0.71461999 -0.062226001 -1.0949 4289265041
-0.71133 -0.062144 -1.0935 4289265041
-0.70858002 -0.062109001 -1.0929 4289265041
-0.70583999 -0.062073998 -1.0923001 4289265041
-0.71518999 -0.060963001 -1.0922 4289265041
-0.71407998 -0.061069999 -1.0942 4289265041
-0.70969999 -0.060896002 -1.091 4289265041
-0.71302003 -0.058506001 -1.089 4289265041
-0.71355999 -0.057477999 -1.0899 4289265041
