# .PCD v0.7 - Point Cloud Data file format
VERSION 0.7
FIELDS x y z rgb
SIZE 4 4 4 4
TYPE F F F U
COUNT 1 1 1 1
WIDTH 1034
HEIGHT 1
VIEWPOINT 0 0 0 1 0 0 0
POINTS 1034
DATA ascii
-0.17139 0.24725001 -1.3351001 4280568564
-0.17139 0.24862 -1.3348 4280568564
-0.17139 0.24998 -1.3346 4280568564
-0.16926999 0.25001001 -1.3347 4280568564
-0.16715001 0.25003001 -1.3348 4280568564
-0.15865999 0.25012001 -1.3353 4280568564
-0.15659 0.25031999 -1.3364 4280568564
-0.15446 0.25034001 -1.3365 4280568564
-0.17564 0.25130001 -1.3341 4280568564
-0.17139 0.25134999 -1.3343 4280568564
-0.16926999 0.25138 -1.3345 4280568564
-0.16715001 0.25139999 -1.3346 4280568564
-0.16291 0.25143999 -1.3348 4280568564
-0.16078 0.25147 -1.3349 4280568564
-0.15871 0.25167 -1.336 4280568564
-0.15243 0.25209999 -1.3383 4280568564
-0.17995 0.25275999 -1.3345 4280568564
-0.17783 0.25279 -1.3347 4280568564
-0.17544 0.25207001 -1.3309 4280568564
-0.17121001 0.25211999 -1.3311 4280568564
-0.16933 0.25288999 -1.3352 4280568564
-0.16715001 0.25272 -1.3343 4280568564
-0.16503 0.25275001 -1.3344001 4280568564
-0.16291 0.25277001 -1.3346 4280568564
-0.16078 0.25279 -1.3347 4280568564
-0.15865999 0.25281 -1.3348 4280568564
-0.1948 0.25380999 -1.3332 4280568564
-0.19276001 0.25402001 -1.3343 4280568564
-0.19047999 0.25367999 -1.3325 4280568564
-0.18419001 0.25396001 -1.334 4280568564
-0.17995 0.25400999 -1.3343 4280568564
-0.17783 0.25404 -1.3344001 4280568564
-0.17564 0.25387999 -1.3336 4280568564
-0.17358001 0.25409001 -1.3347 4280568564
-0.17121001 0.25336999 -1.3309 4280568564
-0.16933 0.25413999 -1.3349 4280568564
-0.16709 0.25378999 -1.3331 4280568564
-0.16508 0.25419 -1.3352 4280568564
-0.16285001 0.25382999 -1.3333 4280568564
-0.16073 0.25386 -1.3335 4280568564
-0.15861 0.25387999 -1.3336 4280568564
-0.19496 0.25545001 -1.3349 4280568564
-0.19284 0.25547999 -1.3351001 4280568564
-0.19056 0.25514001 -1.3333 4280568564
-0.18207 0.25525999 -1.3339 4280568564
-0.17995 0.25529 -1.334 4280568564
-0.17776 0.25512999 -1.3332 4280568564
-0.17551 0.25477999 -1.3314 4280568564
-0.17344999 0.25499001 -1.3325 4280568564
-0.17121001 0.25464001 -1.3307 4280568564
-0.16926999 0.25523001 -1.3336999 4280568564
-0.16503 0.25527 -1.334 4280568564
-0.1628 0.25492001 -1.3321 4280568564
-0.16063 0.25475001 -1.3312 4280568564
-0.15851 0.25477001 -1.3314 4280568564
-0.15639 0.25479001 -1.3315001 4280568564
-0.15426999 0.25481001 -1.3316 4280568564
-0.15215001 0.25483 -1.3317 4280568564
-0.19496 0.25677001 -1.3347 4280568564
-0.19284 0.2568 -1.3348 4280568564
-0.19063 0.25663999 -1.334 4280568564
-0.18836001 0.2563 -1.3322001 4280568564
-0.18617 0.25613999 -1.3314 4280568564
-0.18412 0.25635999 -1.3325 4280568564
-0.18193001 0.25619999 -1.3317 4280568564
-0.17981 0.25622001 -1.3318 4280568564
-0.17769 0.25624999 -1.332 4280568564
-0.17557 0.25628 -1.3321 4280568564
-0.17344999 0.2563 -1.3322001 4280568564
-0.17115 0.25576001 -1.3293999 4280568564
-0.16921 0.25635001 -1.3325 4280568564
-0.16704001 0.25619 -1.3316 4280568564
-0.16497 0.25639999 -1.3327 4280568564
-0.1628 0.25623 -1.3319 4280568564
-0.16068 0.25624999 -1.332 4280568564
-0.15865999 0.25665 -1.334 4280568564
-0.15644 0.25628999 -1.3322001 4280568564
-0.15215001 0.25613999 -1.3314 4280568564
-0.19504 0.25828001 -1.3354 4280568564
-0.19291 0.25830999 -1.3355 4280568564
-0.19079 0.25834 -1.3357 4280568564
-0.18630999 0.25784001 -1.3331 4280568564
-0.18412 0.25768 -1.3322999 4280568564
-0.182 0.25771001 -1.3324 4280568564
-0.17981 0.25753999 -1.3316 4280568564
-0.17783 0.25795001 -1.3336999 4280568564
-0.17569999 0.25797999 -1.3338 4280568564
-0.17352 0.25781 -1.3329999 4280568564
-0.17133 0.25764999 -1.3321 4280568564
-0.16909 0.25729001 -1.3303 4280568564
-0.16704001 0.25751001 -1.3314 4280568564
-0.16492 0.25753 -1.3315001 4280568564
-0.16291 0.25793001 -1.3336 4280568564
-0.16068 0.25757 -1.3317 4280568564
-0.15855999 0.25759 -1.3318 4280568564
-0.15644 0.25760999 -1.3319 4280568564
-0.15422 0.25725001 -1.3301001 4280568564
-0.1522 0.25764999 -1.3321 4280568564
-0.19708 0.25939 -1.334 4280568564
-0.19496 0.25942001 -1.3341 4280568564
-0.19284 0.25946 -1.3343 4280568564
-0.19047999 0.25892001 -1.3315001 4280568564
-0.18836001 0.25895 -1.3317 4280568564
-0.18602 0.25841001 -1.3289 4280568564
-0.18412 0.25900999 -1.332 4280568564
-0.18193001 0.25885001 -1.3312 4280568564
-0.17981 0.25887001 -1.3313 4280568564
-0.17776 0.25909001 -1.3324 4280568564
-0.17551 0.25874001 -1.3306 4280568564
-0.17344999 0.25895 -1.3317 4280568564
-0.17121001 0.2586 -1.3299 4280568564
-0.16909 0.25861999 -1.33 4280568564
-0.16692001 0.25845999 -1.3292 4280568564
-0.1648 0.25848001 -1.3293 4280568564
-0.1628 0.25887999 -1.3314 4280568564
-0.16063 0.25871 -1.3305 4280568564
-0.15855999 0.25892001 -1.3316 4280568564
-0.15639 0.25874999 -1.3307 4280568564
-0.15426999 0.25876999 -1.3308001 4280568564
-0.15215001 0.25878999 -1.3309 4280568564
-0.1499 0.25824001 -1.3279999 4280568564
-0.19487999 0.2606 -1.3329 4280568564
-0.1926 0.26025 -1.3311 4280568564
-0.19047999 0.26028001 -1.3313 4280568564
-0.18844 0.26050001 -1.3324 4280568564
-0.18624 0.26034001 -1.3316 4280568564
-0.18419001 0.26056001 -1.3327 4280568564
-0.18193001 0.26021001 -1.3309 4280568564
-0.17981 0.26023999 -1.331 4280568564
-0.17756 0.25988001 -1.3292 4280568564
-0.17544 0.25990999 -1.3293999 4280568564
-0.17332999 0.25993001 -1.3295 4280568564
-0.17121001 0.25996 -1.3296 4280568564
-0.16892 0.25940999 -1.3268 4280568564
-0.16675 0.25924 -1.326 4280568564
-0.16474999 0.25964999 -1.3279999 4280568564
-0.16263001 0.25966999 -1.3281 4280568564
-0.16073 0.26045999 -1.3322001 4280568564
-0.15846001 0.2599 -1.3293 4280568564
-0.15634 0.25992 -1.3293999 4280568564
-0.15432 0.26032999 -1.3315001 4280568564
-0.15211 0.25996 -1.3296 4280568564
-0.1904 0.26153001 -1.33 4280568564
-0.18829 0.26155999 -1.3302 4280568564
-0.18610001 0.26139 -1.3293 4280568564
-0.18412 0.26181 -1.3315001 4280568564
-0.182 0.26183999 -1.3316 4280568564
-0.17995 0.26205999 -1.3327 4280568564
-0.17769 0.2617 -1.3309 4280568564
-0.17551 0.26154 -1.3301001 4280568564
-0.17339 0.26155999 -1.3302 4280568564
-0.17127 0.26159 -1.3303 4280568564
-0.16914999 0.26161 -1.3305 4280568564
-0.16692001 0.26124999 -1.3286 4280568564
-0.16492 0.26166001 -1.3307 4280568564
-0.1628 0.26168001 -1.3308001 4280568564
-0.16063 0.26151001 -1.3299 4280568564
-0.15851 0.26153001 -1.33 4280568564
-0.15639 0.26155001 -1.3301001 4280568564
-0.15432 0.26176 -1.3312 4280568564
-0.1522 0.26177999 -1.3313 4280568564
-0.15003 0.26161 -1.3304 4280568564
-0.19228999 0.26227 -1.3266 4280568564
-0.19017 0.26230001 -1.3268 4280568564
-0.18844 0.2633 -1.3319 4280568564
-0.18630999 0.26333001 -1.332 4280568564
-0.18419001 0.26335999 -1.3322001 4280568564
-0.18193001 0.26300001 -1.3304 4280568564
-0.17981 0.26302999 -1.3305 4280568564
-0.17776 0.26324999 -1.3316 4280568564
-0.17544 0.26269999 -1.3288 4280568564
-0.17344999 0.26311001 -1.3309 4280568564
-0.17121001 0.26275 -1.3291 4280568564
-0.16921 0.26315999 -1.3312 4280568564
-0.16704001 0.26299 -1.3303 4280568564
-0.16486 0.26282001 -1.3293999 4280568564
-0.16285001 0.26323 -1.3315001 4280568564
-0.16063 0.26286 -1.3297 4280568564
-0.15865999 0.26346999 -1.3327 4280568564
-0.15634 0.26271001 -1.3289 4280568564
-0.15426999 0.26293001 -1.33 4280568564
-0.15211 0.26275 -1.3291 4280568564
-0.14995 0.26258001 -1.3282 4280568564
-0.19487999 0.26462999 -1.3321 4280568564
-0.19251999 0.26407999 -1.3293 4280568564
-0.19047999 0.26431 -1.3305 4280568564
-0.18836001 0.26434001 -1.3306 4280568564
-0.18624 0.26436999 -1.3308001 4280568564
-0.18193001 0.26423001 -1.3301001 4280568564
-0.17974 0.26407 -1.3293 4280568564
-0.17776 0.26449001 -1.3314 4280568564
-0.17551 0.26412001 -1.3296 4280568564
-0.1732 0.26357001 -1.3267 4280568564
-0.17109001 0.26359001 -1.3269 4280568564
-0.16903999 0.26381001 -1.3279999 4280568564
-0.16698 0.26403001 -1.3291 4280568564
-0.1648 0.26385999 -1.3282 4280568564
-0.16269 0.26388001 -1.3283 4280568564
-0.16057 0.26390001 -1.3284 4280568564
-0.15861 0.26451001 -1.3315001 4280568564
-0.15639 0.26414001 -1.3296 4280568564
-0.15422 0.26396999 -1.3288 4280568564
-0.15211 0.26398 -1.3289 4280568564
-0.1499 0.26361001 -1.327 4280568564
-0.19079 0.26637 -1.3341 4280568564
-0.18836001 0.26561999 -1.3304 4280568564
-0.18610001 0.26526001 -1.3286 4280568564
-0.18384001 0.2649 -1.3268 4280568564
-0.18178999 0.26513001 -1.3279001 4280568564
-0.17981 0.26554999 -1.33 4280568564
-0.17743 0.26479 -1.3262 4280568564
-0.17532 0.26482001 -1.3264 4280568564
-0.17314 0.26464999 -1.3255 4280568564
-0.17109001 0.26486999 -1.3266 4280568564
-0.16892 0.2647 -1.3257999 4280568564
-0.16692001 0.26512 -1.3278 4280568564
-0.16469 0.26475 -1.326 4280568564
-0.15846001 0.26521 -1.3283 4280568564
-0.15634 0.26523 -1.3284 4280568564
-0.15422 0.26525 -1.3285 4280568564
-0.15215001 0.26546001 -1.3296 4280568564
-0.15003 0.26548001 -1.3297 4280568564
-0.19237 0.26637 -1.3268 4280568564
-0.19056 0.26719001 -1.3309 4280568564
-0.18829 0.26683 -1.3291 4280568564
-0.18610001 0.26666 -1.3283 4280568564
-0.18398 0.26668999 -1.3285 4280568564
-0.18178999 0.26651999 -1.3276 4280568564
-0.17974 0.26675001 -1.3286999 4280568564
-0.17736 0.26598999 -1.325 4280568564
-0.17532 0.26622 -1.3261 4280568564
-0.17314 0.26605001 -1.3252 4280568564
-0.17115 0.26646 -1.3273 4280568564
-0.16903999 0.26649001 -1.3274 4280568564
-0.16675 0.26592001 -1.3246 4280568564
-0.16463999 0.26594999 -1.3247 4280568564
-0.15628999 0.26642999 -1.3271 4280568564
-0.15418001 0.26644999 -1.3272001 4280568564
-0.15211 0.26666 -1.3283 4280568564
-0.15003 0.26688001 -1.3293999 4280568564
-0.19244 0.26795 -1.3275 4280568564
-0.18821 0.26800999 -1.3279001 4280568564
-0.18610001 0.26804 -1.3279999 4280568564
-0.18376 0.26747999 -1.3252 4280568564
-0.18172 0.26771 -1.3264 4280568564
-0.17961 0.26774001 -1.3265001 4280568564
-0.17743 0.26756999 -1.3257 4280568564
-0.17532 0.2676 -1.3257999 4280568564
-0.17327 0.26782 -1.3269 4280568564
-0.17115 0.26785001 -1.327 4280568564
-0.16892 0.26747999 -1.3252 4280568564
-0.16680001 0.26750001 -1.3253 4280568564
-0.15851 0.26818001 -1.3286999 4280568564
-0.15634 0.26800999 -1.3278 4280568564
-0.15422 0.26802999 -1.3279001 4280568564
-0.15197 0.26745 -1.3250999 4280568564
-0.1926 0.26971 -1.3292 4280568564
-0.19024999 0.26914001 -1.3265001 4280568564
-0.18814 0.26918 -1.3266 4280568564
-0.18595 0.26901001 -1.3257999 4280568564
-0.18376 0.26883999 -1.325 4280568564
-0.18165 0.26887 -1.3250999 4280568564
-0.17961 0.26910001 -1.3262 4280568564
-0.17749 0.26912999 -1.3264 4280568564
-0.17532 0.26896 -1.3255 4280568564
-0.1732 0.26898 -1.3257 4280568564
-0.17109001 0.26901001 -1.3257999 4280568564
-0.16886 0.26864001 -1.324 4280568564
-0.15418001 0.26919001 -1.3267 4280568564
-0.15197 0.26881 -1.3248 4280568564
-0.19251999 0.27083999 -1.3279999 4280568564
-0.19033 0.27067 -1.3272001 4280568564
-0.18829 0.27090001 -1.3283 4280568564
-0.18595 0.27034 -1.3255 4280568564
-0.18404999 0.27096 -1.3286 4280568564
-0.18172 0.27039999 -1.3257999 4280568564
-0.17968 0.27063 -1.3269 4280568564
-0.17728999 0.26986 -1.3232 4280568564
-0.17524999 0.27008 -1.3243001 4280568564
-0.17308 0.26991001 -1.3234 4280568564
-0.17103 0.27013999 -1.3245 4280568564
-0.16898 0.27035999 -1.3256 4280568564
-0.16463999 0.27000999 -1.3239 4280568564
-0.15408 0.27011999 -1.3245 4280568564
-0.15202001 0.27034 -1.3255 4280568564
-0.19237 0.27171999 -1.3257999 4280568564
-0.1904 0.27215001 -1.3279001 4280568564
-0.18836001 0.27237999 -1.329 4280568564
-0.18404999 0.27225 -1.3283 4280568564
-0.17953999 0.27149999 -1.3247 4280568564
-0.17728999 0.27113 -1.3229001 4280568564
-0.17524999 0.27136001 -1.324 4280568564
-0.17301001 0.27099001 -1.3221999 4280568564
-0.17115 0.27181 -1.3262 4280568564
-0.16903999 0.27184001 -1.3264 4280568564
-0.16698 0.27206999 -1.3275 4280568564
-0.16469 0.27149001 -1.3246 4280568564
-0.15628999 0.27178001 -1.3261 4280568564
-0.15403999 0.2712 -1.3232 4280568564
-0.15206 0.27182001 -1.3263 4280568564
-0.1901 0.27263999 -1.3237 4280568564
-0.18798999 0.27267 -1.3239 4280568564
-0.18624 0.27371001 -1.3289 4280568564
-0.18391 0.27313 -1.3261 4280568564
-0.18165 0.27276 -1.3243001 4280568564
-0.17934 0.27219 -1.3214999 4280568564
-0.17723 0.27221999 -1.3217 4280568564
-0.17519 0.27243999 -1.3228 4280568564
-0.1732 0.27287 -1.3249 4280568564
-0.17103 0.27270001 -1.324 4280568564
-0.16886 0.27252001 -1.3232 4280568564
-0.16663 0.27215001 -1.3213 4280568564
-0.15624 0.27285999 -1.3248 4280568564
-0.15399 0.27228001 -1.322 4280568564
-0.15206 0.27311 -1.326 4280568564
-0.18798999 0.27397001 -1.3236001 4280568564
-0.1858 0.27379999 -1.3228 4280568564
-0.18369 0.27383 -1.3229001 4280568564
-0.18165 0.27406999 -1.324 4280568564
-0.17947 0.27388999 -1.3232 4280568564
-0.17524999 0.27395001 -1.3235 4280568564
-0.17308 0.27377999 -1.3226 4280568564
-0.17084 0.27340001 -1.3207999 4280568564
-0.16868 0.27322 -1.3200001 4280568564
-0.16663 0.27344999 -1.3211 4280568564
-0.16452999 0.27347001 -1.3212 4280568564
-0.15628999 0.27437001 -1.3255 4280568564
-0.15408 0.27399001 -1.3237 4280568564
-0.15206 0.27441001 -1.3257 4280568564
-0.14977001 0.27362001 -1.3219 4280568564
-0.18798999 0.27528 -1.3233 4280568564
-0.1858 0.27511001 -1.3225 4280568564
-0.18384001 0.27555001 -1.3246 4280568564
-0.1771 0.27441999 -1.3192 4280568564
-0.17512 0.27485999 -1.3213 4280568564
-0.17301001 0.27487999 -1.3214 4280568564
-0.17084 0.27471 -1.3205 4280568564
-0.16874 0.27473 -1.3207 4280568564
-0.15634 0.27588999 -1.3262 4280568564
-0.15413 0.2755 -1.3243999 4280568564
-0.15206 0.27573001 -1.3254 4280568564
-0.14985999 0.27533999 -1.3236001 4280568564
-0.18341 0.27564999 -1.3185 4280568564
-0.18172 0.27691001 -1.3245 4280568564
-0.17953999 0.27673 -1.3236001 4280568564
-0.17308 0.27641001 -1.3221 4280568564
-0.15615 0.2764 -1.322 4280568564
-0.15408 0.27662 -1.3231 4280568564
-0.18566 0.27735999 -1.3200001 4280568564
-0.18355 0.27739 -1.3200999 4280568564
-0.17512 0.27750999 -1.3207 4280568564
-0.17301001 0.27754 -1.3207999 4280568564
-0.15615 0.27772999 -1.3218 4280568564
-0.15403999 0.27774999 -1.3219 4280568564
-0.15184 0.27735999 -1.3200001 4280568564
-0.18573 0.27893999 -1.3207 4280568564
-0.18362001 0.27897 -1.3207999 4280568564
-0.18165 0.27941 -1.3229001 4280568564
-0.17953999 0.27943999 -1.3231 4280568564
-0.17301001 0.27891001 -1.3205 4280568564
-0.1582 0.27888 -1.3204 4280568564
-0.15605 0.27869001 -1.3195 4280568564
-0.15403999 0.27913001 -1.3216 4280568564
-0.15188 0.27893999 -1.3207 4280568564
-0.19228999 0.28079 -1.3229001 4280568564
-0.19017 0.28082001 -1.323 4280568564
-0.18798999 0.28064999 -1.3221999 4280568564
-0.18588001 0.28068 -1.3223 4280568564
-0.18384001 0.28092 -1.3235 4280568564
-0.18178999 0.28116 -1.3246 4280568564
-0.17295 0.28003001 -1.3193001 4280568564
-0.16242 0.28016001 -1.3199 4280568564
-0.16046999 0.28080001 -1.3229001 4280568564
-0.15831 0.28062001 -1.3221 4280568564
-0.15615 0.28042999 -1.3212 4280568564
-0.15408 0.28066 -1.3223 4280568564
-0.15178999 0.27985001 -1.3185 4280568564
-0.14977001 0.28029001 -1.3205 4280568564
-0.1901 0.28187001 -1.3218 4280568564
-0.18791001 0.28169999 -1.321 4280568564
-0.18566 0.28130999 -1.3192 4280568564
-0.18355 0.28134999 -1.3193001 4280568564
-0.18144 0.28138 -1.3195 4280568564
-0.17506 0.28126001 -1.3189 4280568564
-0.17295 0.28128999 -1.319 4280568564
-0.17084 0.28130999 -1.3192 4280568564
-0.16874 0.28134 -1.3193001 4280568564
-0.16663 0.28137001 -1.3194 4280568564
-0.16463999 0.28180999 -1.3214999 4280568564
-0.16263001 0.28224999 -1.3235 4280568564
-0.16035999 0.28165001 -1.3207 4280568564
-0.1582 0.28145999 -1.3198 4280568564
-0.1561 0.28148001 -1.3199 4280568564
-0.15403999 0.28171 -1.321 4280568564
-0.15184 0.28132001 -1.3192 4280568564
-0.14969 0.28112999 -1.3183 4280568564
-0.14762001 0.28134999 -1.3193001 4280568564
-0.14552 0.28137001 -1.3194 4280568564
-0.19205 0.2827 -1.3194 4280568564
-0.18987 0.28253001 -1.3186001 4280568564
-0.18776 0.28255999 -1.3187 4280568564
-0.18566 0.28259 -1.3189 4280568564
-0.18362001 0.28283 -1.3200001 4280568564
-0.18137001 0.28244999 -1.3182 4280568564
-0.17919999 0.28227001 -1.3174 4280568564
-0.17703 0.28209001 -1.3164999 4280568564
-0.17486 0.28191 -1.3157001 4280568564
-0.17295 0.28257 -1.3187 4280568564
-0.17084 0.28259 -1.3189 4280568564
-0.16874 0.28262001 -1.319 4280568564
-0.16663 0.28264999 -1.3191 4280568564
-0.16447 0.28246 -1.3183 4280568564
-0.16242 0.28268999 -1.3194 4280568564
-0.16026001 0.28251001 -1.3185 4280568564
-0.15815 0.28253001 -1.3186001 4280568564
-0.1561 0.28275999 -1.3197 4280568564
-0.15403999 0.28299001 -1.3207 4280568564
-0.15188 0.28279999 -1.3199 4280568564
-0.14963999 0.28220001 -1.317 4280568564
-0.14758 0.28242001 -1.3181 4280568564
-0.14552 0.28264999 -1.3192 4280568564
-0.19213 0.28424999 -1.3200999 4280568564
-0.19001999 0.28428 -1.3202 4280568564
-0.18776 0.28389999 -1.3184 4280568564
-0.18566 0.28393 -1.3186001 4280568564
-0.18347999 0.28375 -1.3178 4280568564
-0.1813 0.28356999 -1.3169 4280568564
-0.17919999 0.2836 -1.3171 4280568564
-0.17703 0.28342 -1.3162 4280568564
-0.17506 0.28387001 -1.3183 4280568564
-0.17288999 0.28369001 -1.3175 4280568564
-0.17091 0.28413999 -1.3196 4280568564
-0.16868 0.28374001 -1.3177 4280568564
-0.16663 0.28398001 -1.3188 4280568564
-0.16458 0.28422001 -1.3199 4280568564
-0.16247 0.28424001 -1.3200001 4280568564
-0.16035999 0.28426 -1.3202 4280568564
-0.15815 0.28387001 -1.3183 4280568564
-0.1561 0.2841 -1.3194 4280568564
-0.15403999 0.28433001 -1.3205 4280568564
-0.15188 0.28413999 -1.3196 4280568564
-0.14977001 0.28415999 -1.3197 4280568564
-0.14758 0.28376001 -1.3178 4280568564
-0.19205 0.28536001 -1.3188 4280568564
-0.18979 0.28496999 -1.317 4280568564
-0.18753999 0.28457999 -1.3152 4280568564
-0.18550999 0.28483 -1.3164001 4280568564
-0.18341 0.28485999 -1.3164999 4280568564
-0.18137001 0.28510001 -1.3176 4280568564
-0.17927 0.28512999 -1.3178 4280568564
-0.17715999 0.28516001 -1.3178999 4280568564
-0.17512 0.2854 -1.319 4280568564
-0.17283 0.28479999 -1.3162 4280568564
-0.17066 0.28461 -1.3154 4280568564
-0.16844 0.28422001 -1.3135999 4280568564
-0.16646001 0.28467 -1.3156 4280568564
-0.16441 0.28490001 -1.3167 4280568564
-0.16231 0.28492999 -1.3168 4280568564
-0.16026001 0.28516001 -1.3178999 4280568564
-0.15815 0.28518999 -1.318 4280568564
-0.15605 0.28521001 -1.3181 4280568564
-0.15399 0.28544 -1.3192 4280568564
-0.15184 0.28525001 -1.3183 4280568564
-0.14969 0.28505999 -1.3174 4280568564
-0.14754 0.28487 -1.3164999 4280568564
-0.14548001 0.28510001 -1.3176 4280568564
-0.19205 0.28663999 -1.3185 4280568564
-0.18987 0.28646001 -1.3177 4280568564
-0.18769 0.28628999 -1.3169 4280568564
-0.18550999 0.28611001 -1.3161 4280568564
-0.18347999 0.28635001 -1.3171999 4280568564
-0.18144 0.28659999 -1.3183 4280568564
-0.17934 0.28663 -1.3185 4280568564
-0.17723 0.28665999 -1.3186001 4280568564
-0.17072 0.28611001 -1.3161 4280568564
-0.16844 0.28549999 -1.3133 4280568564
-0.1664 0.28573999 -1.3144 4280568564
-0.16441 0.28619 -1.3164001 4280568564
-0.16236 0.28641999 -1.3175 4280568564
-0.16026001 0.28645 -1.3176 4280568564
-0.15805 0.28604001 -1.3158 4280568564
-0.156 0.28628001 -1.3169 4280568564
-0.15389 0.2863 -1.317 4280568564
-0.15188 0.28674999 -1.319 4280568564
-0.14977001 0.28676999 -1.3191 4280568564
-0.14762001 0.28657001 -1.3182 4280568564
-0.14552 0.28659001 -1.3183 4280568564
-0.19392 0.28727001 -1.3152 4280568564
-0.19182 0.28729999 -1.3153 4280568564
-0.18964 0.28712001 -1.3145 4280568564
-0.18776 0.28780001 -1.3176 4280568564
-0.18550999 0.28740001 -1.3158 4280568564
-0.18347999 0.28764999 -1.3169 4280568564
-0.18137001 0.28768 -1.3171 4280568564
-0.17919999 0.28749999 -1.3162 4280568564
-0.1771 0.28753 -1.3164001 4280568564
-0.17288999 0.28759 -1.3166 4280568564
-0.16868 0.28764001 -1.3169 4280568564
-0.16663 0.28788 -1.318 4280568564
-0.16452999 0.28791001 -1.3181 4280568564
-0.16236 0.28771999 -1.3171999 4280568564
-0.16026001 0.28773999 -1.3174 4280568564
-0.15805 0.28733999 -1.3155 4280568564
-0.15605 0.28779 -1.3176 4280568564
-0.15394001 0.28781 -1.3177 4280568564
-0.15165 0.28698 -1.3139 4280568564
-0.14963999 0.28742999 -1.3159 4280568564
-0.14762001 0.28786999 -1.3178999 4280568564
-0.14552 0.28788999 -1.318 4280568564
-0.19182 0.28863001 -1.3150001 4280568564
-0.18979 0.28887999 -1.3162 4280568564
-0.18769 0.28891999 -1.3163 4280568564
-0.18550999 0.28874001 -1.3155 4280568564
-0.18341 0.28876999 -1.3157001 4280568564
-0.18137001 0.28902 -1.3168 4280568564
-0.17913 0.28862 -1.3150001 4280568564
-0.17715999 0.28907999 -1.3171 4280568564
-0.17499 0.28889 -1.3162 4280568564
-0.17295 0.28913999 -1.3173 4280568564
-0.17084 0.28916001 -1.3175 4280568564
-0.16874 0.28918999 -1.3176 4280568564
-0.16669001 0.28942999 -1.3187 4280568564
-0.16441 0.28882 -1.3159 4280568564
-0.16231 0.28884 -1.316 4280568564
-0.15809999 0.28889 -1.3162 4280568564
-0.156 0.28891 -1.3163 4280568564
-0.15389 0.28893 -1.3164001 4280568564
-0.15165 0.28830999 -1.3135999 4280568564
-0.14955001 0.28832999 -1.3137 4280568564
-0.14758 0.28898999 -1.3167 4280568564
-0.14552 0.28922001 -1.3177 4280568564
-0.19189 0.29018 -1.3157001 4280568564
-0.18979 0.29021001 -1.3159 4280568564
-0.18769 0.29025 -1.316 4280568564
-0.18544 0.28985 -1.3142 4280568564
-0.18333 0.28988001 -1.3144 4280568564
-0.18137001 0.29034001 -1.3164999 4280568564
-0.17927 0.29038 -1.3166 4280568564
-0.17723 0.29062 -1.3177 4280568564
-0.17506 0.29043999 -1.3169 4280568564
-0.17295 0.29045999 -1.317 4280568564
-0.17091 0.29071 -1.3181 4280568564
-0.16862001 0.29008999 -1.3153 4280568564
-0.16646001 0.2899 -1.3145 4280568564
-0.1601 0.28975999 -1.3138 4280568564
-0.15809999 0.29021999 -1.3159 4280568564
-0.156 0.29023999 -1.316 4280568564
-0.15385 0.29003999 -1.3151 4280568564
-0.15178999 0.29028001 -1.3162 4280568564
-0.14969 0.29030001 -1.3163 4280568564
-0.14758 0.29032001 -1.3164001 4280568564
-0.14552 0.29054999 -1.3174 4280568564
-0.14326 0.28970999 -1.3135999 4280568564
-0.19182 0.29128 -1.3145 4280568564
-0.18964 0.29109001 -1.3135999 4280568564
-0.18753999 0.29113001 -1.3138 4280568564
-0.18536 0.29095 -1.313 4280568564
-0.18325999 0.29098001 -1.3131 4280568564
-0.1813 0.29144001 -1.3152 4280568564
-0.17913 0.29126 -1.3144 4280568564
-0.17703 0.29128999 -1.3145 4280568564
-0.17499 0.29154 -1.3156 4280568564
-0.1727 0.29091999 -1.3128 4280568564
-0.1706 0.29095 -1.313 4280568564
-0.16850001 0.29097 -1.3131 4280568564
-0.1622 0.29104999 -1.3134 4280568564
-0.16031 0.29194 -1.3175 4280568564
-0.156 0.29155001 -1.3157001 4280568564
-0.15389 0.29157001 -1.3158 4280568564
-0.15178999 0.29159999 -1.3159 4280568564
-0.14969 0.29161999 -1.316 4280568564
-0.14749999 0.29120001 -1.3141 4280568564
-0.14548001 0.29165 -1.3162 4280568564
-0.19182 0.29258999 -1.3142 4280568564
-0.18971001 0.29262999 -1.3142999 4280568564
-0.18753999 0.29245001 -1.3135 4280568564
-0.18544 0.29247999 -1.3137 4280568564
-0.18333 0.29251 -1.3138 4280568564
-0.18116 0.29233 -1.313 4280568564
-0.17913 0.29258001 -1.3141 4280568564
-0.1769 0.29218 -1.3123 4280568564
-0.17479999 0.29221001 -1.3124 4280568564
-0.1727 0.29223001 -1.3126 4280568564
-0.1706 0.29225999 -1.3127 4280568564
-0.16622999 0.29166999 -1.3099999 4280568564
-0.16035999 0.29348001 -1.3181 4280568564
-0.15825 0.29350001 -1.3182 4280568564
-0.15605 0.29308999 -1.3164001 4280568564
-0.15366 0.29181001 -1.3106 4280568564
-0.15174 0.29269999 -1.3146 4280568564
-0.1496 0.29249999 -1.3138 4280568564
-0.14754 0.29273999 -1.3148 4280568564
-0.14544 0.29276001 -1.3149 4280568564
-0.14332999 0.29278001 -1.3150001 4280568564
-0.14123 0.29279 -1.3151 4280568564
-0.13913 0.29280999 -1.3151 4280568564
-0.19189 0.29414001 -1.3148 4280568564
-0.18971001 0.29396001 -1.314 4280568564
-0.18761 0.294 -1.3142 4280568564
-0.18550999 0.29403001 -1.3142999 4280568564
-0.18341 0.29405999 -1.3145 4280568564
-0.18137001 0.29431 -1.3156 4280568564
-0.17913 0.29391 -1.3138 4280568564
-0.1769 0.29350001 -1.312 4280568564
-0.17479999 0.29352999 -1.3121001 4280568564
-0.1727 0.29356 -1.3123 4280568564
-0.1706 0.29359001 -1.3124 4280568564
-0.16850001 0.29361999 -1.3125 4280568564
-0.16633999 0.29343 -1.3117 4280568564
-0.16429999 0.29367 -1.3127 4280568564
-0.16226 0.29392001 -1.3138 4280568564
-0.16015001 0.29394001 -1.3139 4280568564
-0.15571 0.2929 -1.3092999 4280568564
-0.15375 0.29357001 -1.3123 4280568564
-0.1517 0.29381001 -1.3134 4280568564
-0.1496 0.29383001 -1.3135 4280568564
-0.14749999 0.29385 -1.3135 4280568564
-0.14544 0.29409 -1.3146 4280568564
-0.14332999 0.29411 -1.3147 4280568564
-0.14123 0.29412001 -1.3148 4280568564
-0.19166 0.29480001 -1.3116 4280568564
-0.18971001 0.29528001 -1.3137 4280568564
-0.18753999 0.29508999 -1.3128999 4280568564
-0.18536 0.29491001 -1.3121001 4280568564
-0.18319 0.29471999 -1.3113 4280568564
-0.18109 0.29475001 -1.3114001 4280568564
-0.17906 0.29499999 -1.3125 4280568564
-0.17663001 0.29394001 -1.3078001 4280568564
-0.17479999 0.29484999 -1.3118 4280568564
-0.1622 0.29501 -1.3126 4280568564
-0.16015001 0.29525 -1.3135999 4280568564
-0.15584999 0.29486001 -1.3119 4280568564
-0.1538 0.2951 -1.313 4280568564
-0.15165 0.29491001 -1.3121001 4280568564
-0.14955001 0.29493001 -1.3122 4280568564
-0.14741001 0.29473001 -1.3113 4280568564
-0.14535999 0.29497001 -1.3124 4280568564
-0.14329 0.29519999 -1.3134 4280568564
-0.14116 0.29499999 -1.3125 4280568564
-0.13899 0.29458001 -1.3106 4280568564
-0.19174001 0.29629999 -1.3123 4280568564
-0.18956 0.29611 -1.3115 4280568564
-0.18746001 0.29615 -1.3117 4280568564
-0.18528999 0.29596001 -1.3108 4280568564
-0.18325999 0.29622 -1.312 4280568564
-0.18116 0.29624999 -1.3121001 4280568564
-0.17893 0.29584 -1.3103 4280568564
-0.17676 0.29565001 -1.3095 4280568564
-0.17473 0.29589999 -1.3106 4280568564
-0.17264 0.29593 -1.3107001 4280568564
-0.16418999 0.29582 -1.3102 4280568564
-0.16209 0.29585001 -1.3103 4280568564
-0.15994 0.29565001 -1.3095 4280568564
-0.15790001 0.29589999 -1.3105 4280568564
-0.1558 0.29592001 -1.3106 4280568564
-0.1538 0.29638001 -1.3127 4280568564
-0.1517 0.29640001 -1.3128 4280568564
-0.14955001 0.29620001 -1.3119 4280568564
-0.14749999 0.29644001 -1.313 4280568564
-0.14535999 0.29624 -1.3121001 4280568564
-0.14326 0.29626 -1.3122 4280568564
-0.14112 0.29606 -1.3113 4280568564
-0.13902 0.29607999 -1.3113 4280568564
-0.19158 0.29714 -1.3101 4280568564
-0.18948001 0.29718 -1.3102 4280568564
-0.18746001 0.29743999 -1.3114001 4280568564
-0.18536 0.29747 -1.3115 4280568564
-0.18319 0.29728001 -1.3107001 4280568564
-0.18102001 0.29710001 -1.3099 4280568564
-0.17893 0.29712999 -1.3099999 4280568564
-0.17682999 0.29716 -1.3101 4280568564
-0.17467 0.29697001 -1.3092999 4280568564
-0.17275999 0.29765999 -1.3124 4280568564
-0.16418999 0.29710999 -1.3099 4280568564
-0.16209 0.29712999 -1.3099999 4280568564
-0.16 0.29716 -1.3101 4280568564
-0.15795 0.2974 -1.3112 4280568564
-0.1559 0.29765001 -1.3123 4280568564
-0.15385 0.29789001 -1.3134 4280568564
-0.15178999 0.29813001 -1.3144 4280568564
-0.14969 0.29815999 -1.3145 4280568564
-0.14762001 0.29840001 -1.3156 4280568564
-0.14544 0.29797 -1.3137 4280568564
-0.14337 0.29821 -1.3148 4280568564
-0.14112 0.29734999 -1.311 4280568564
-0.13916001 0.29824999 -1.3149 4280568564
-0.13696 0.2976 -1.3121001 4280568564
-0.18948001 0.29848999 -1.3099 4280568564
-0.18746001 0.29875001 -1.3111 4280568564
-0.18522 0.29833999 -1.3092999 4280568564
-0.18325999 0.29881999 -1.3114001 4280568564
-0.18109 0.29863 -1.3105 4280568564
-0.17913 0.29910001 -1.3126 4280568564
-0.17696001 0.29890999 -1.3118 4280568564
-0.17493001 0.29916 -1.3128999 4280568564
-0.17275999 0.29897001 -1.3121001 4280568564
-0.17066 0.29899999 -1.3122 4280568564
-0.16850001 0.29881001 -1.3113 4280568564
-0.16418999 0.29842001 -1.3096 4280568564
-0.16209 0.29844001 -1.3097 4280568564
-0.1601 0.29890999 -1.3118 4280568564
-0.15795 0.29870999 -1.3109 4280568564
-0.1558 0.29852 -1.3101 4280568564
-0.15375 0.29876 -1.3111 4280568564
-0.15165 0.29877999 -1.3112 4280568564
-0.1496 0.29901999 -1.3123 4280568564
-0.14749999 0.29903999 -1.3124 4280568564
-0.1454 0.29905999 -1.3125 4280568564
-0.14332999 0.29929999 -1.3135 4280568564
-0.14123 0.29932001 -1.3135999 4280568564
-0.18506999 0.29923001 -1.307 4280568564
-0.18305001 0.29949 -1.3081 4280568564
-0.18095 0.29951999 -1.3083 4280568564
-0.17893 0.29978001 -1.3094 4280568564
-0.17676 0.29958999 -1.3085999 4280568564
-0.17473 0.29984 -1.3097 4280568564
-0.17264 0.29987001 -1.3098 4280568564
-0.17048 0.29967999 -1.309 4280568564
-0.16838001 0.29969999 -1.3091 4280568564
-0.16629 0.29973 -1.3092 4280568564
-0.16425 0.29998001 -1.3103 4280568564
-0.16215 0.30001 -1.3104 4280568564
-0.16 0.29980999 -1.3095 4280568564
-0.15790001 0.29982999 -1.3096 4280568564
-0.1558 0.29986 -1.3097 4280568564
-0.15370999 0.29988 -1.3098 4280568564
-0.15161 0.2999 -1.3099 4280568564
-0.14955001 0.30013999 -1.311 4280568564
-0.14749999 0.30039001 -1.3121001 4280568564
-0.14548001 0.30085 -1.3141 4280568564
-0.14337 0.30087 -1.3142 4280568564
-0.14127 0.30089 -1.3142999 4280568564
-0.185 0.30041999 -1.3056999 4280568564
-0.18298 0.30068001 -1.3068 4280568564
-0.18088 0.30070999 -1.307 4280568564
-0.17885999 0.30096999 -1.3081 4280568564
-0.17663001 0.30055001 -1.3063 4280568564
-0.17454 0.30057999 -1.3063999 4280568564
-0.17245001 0.30061001 -1.3066 4280568564
-0.17054 0.30131 -1.3096 4280568564
-0.16844 0.30134001 -1.3097 4280568564
-0.16629 0.30114999 -1.3089 4280568564
-0.16418999 0.30116999 -1.309 4280568564
-0.16204 0.30096999 -1.3081 4280568564
-0.16 0.30122 -1.3092 4280568564
-0.15790001 0.30125001 -1.3092999 4280568564
-0.1558 0.30127001 -1.3094 4280568564
-0.15370999 0.30129001 -1.3095 4280568564
-0.15165 0.30153999 -1.3106 4280568564
-0.14955001 0.30156001 -1.3107001 4280568564
-0.14737 0.30113 -1.3088 4280568564
-0.14532 0.30138001 -1.3099 4280568564
-0.14318 0.30116999 -1.309 4280568564
-0.14119001 0.30186 -1.312 4280568564
-0.13913 0.3021 -1.313 4280568564
-0.13702001 0.30212 -1.3131 4280568564
-0.13489 0.30191001 -1.3122 4280568564
-0.18095 0.30228999 -1.3077 4280568564
-0.17885999 0.30232 -1.3078001 4280568564
-0.1767 0.30213001 -1.307 4280568564
-0.17460001 0.30215999 -1.3071001 4280568564
-0.17239 0.30173999 -1.3053 4280568564
-0.16844 0.30270001 -1.3094 4280568564
-0.16622999 0.30227 -1.3076 4280568564
-0.16425 0.30274999 -1.3097 4280568564
-0.16199 0.3021 -1.3068 4280568564
-0.16 0.30258 -1.3089 4280568564
-0.15795 0.30283001 -1.3099999 4280568564
-0.15584999 0.30285001 -1.3101 4280568564
-0.1538 0.30309999 -1.3112 4280568564
-0.15165 0.30289 -1.3103 4280568564
-0.1496 0.30314001 -1.3113 4280568564
-0.14737 0.30248001 -1.3085001 4280568564
-0.14535999 0.30294999 -1.3105 4280568564
-0.14326 0.30296999 -1.3106 4280568564
-0.14119001 0.30322 -1.3117 4280568564
-0.13909 0.30322999 -1.3117 4280568564
-0.13699 0.30325001 -1.3118 4280568564
-0.13497999 0.30394 -1.3148 4280568564
-0.13276 0.30305001 -1.311 4280568564
-0.17251 0.30344999 -1.3069 4280568564
-0.17048 0.3037 -1.308 4280568564
-0.16825999 0.30328 -1.3062 4280568564
-0.16617 0.30331001 -1.3063 4280568564
-0.16413 0.30355999 -1.3074 4280568564
-0.16204 0.30359 -1.3075 4280568564
-0.15994 0.30361 -1.3076 4280568564
-0.15790001 0.30386001 -1.3087 4280568564
-0.15584999 0.30410999 -1.3098 4280568564
-0.15375 0.30414 -1.3099 4280568564
-0.15155999 0.30371001 -1.308 4280568564
-0.14955001 0.30418 -1.3101 4280568564
-0.14746 0.30419999 -1.3102 4280568564
-0.1454 0.30443999 -1.3112 4280568564
-0.14326 0.30423999 -1.3103 4280568564
-0.14108001 0.30379999 -1.3085001 4280568564
-0.13902 0.30405 -1.3095 4280568564
-0.13699 0.30451 -1.3115 4280568564
-0.13281 0.30476999 -1.3126 4280568564
-0.1769 0.30533999 -1.3092999 4280568564
-0.17257001 0.30493999 -1.3076 4280568564
-0.17054 0.30520001 -1.3087 4280568564
-0.16832 0.30478001 -1.3069 4280568564
-0.16622999 0.3048 -1.307 4280568564
-0.16407999 0.3046 -1.3061 4280568564
-0.15994 0.30487999 -1.3073 4280568564
-0.15785 0.30491 -1.3074 4280568564
-0.15575001 0.30493 -1.3075 4280568564
-0.15366 0.30495 -1.3076 4280568564
-0.1517 0.30566001 -1.3107001 4280568564
-0.1496 0.30568001 -1.3108 4280568564
-0.14754 0.30592999 -1.3118 4280568564
-0.14535999 0.30548999 -1.3099 4280568564
-0.14326 0.30551001 -1.3099999 4280568564
-0.14112 0.3053 -1.3091 4280568564
-0.13909 0.30577001 -1.3112 4280568564
-0.13702001 0.30601001 -1.3122 4280568564
-0.13278 0.30581999 -1.3114001 4280568564
-0.18081 0.30565 -1.3048 4280568564
-0.17251 0.30601001 -1.3063 4280568564
-0.17036 0.30581 -1.3055 4280568564
-0.1682 0.30561 -1.3046 4280568564
-0.16610999 0.30564001 -1.3048 4280568564
-0.16413 0.30612001 -1.3068 4280568564
-0.16215 0.3066 -1.3089 4280568564
-0.15978999 0.30548999 -1.3041 4280568564
-0.15366 0.30623999 -1.3073 4280568564
-0.15165 0.30671999 -1.3094 4280568564
-0.14951 0.30651 -1.3085001 4280568564
-0.14746 0.30676001 -1.3096 4280568564
-0.1454 0.30700999 -1.3106 4280568564
-0.14332999 0.30726001 -1.3117 4280568564
-0.14119001 0.30704999 -1.3108 4280568564
-0.13906001 0.30684 -1.3099 4280568564
-0.13696 0.30684999 -1.3099 4280568564
-0.13278 0.30711001 -1.311 4280568564
-0.18081 0.30693999 -1.3045 4280568564
-0.17663001 0.30700001 -1.3048 4280568564
-0.17454 0.30704001 -1.3049001 4280568564
-0.17239 0.30684 -1.3041 4280568564
-0.17030001 0.30687001 -1.3042001 4280568564
-0.16825999 0.30713001 -1.3053 4280568564
-0.16622999 0.30737999 -1.3063999 4280568564
-0.16418999 0.30763999 -1.3075 4280568564
-0.16192999 0.30698001 -1.3047 4280568564
-0.15989 0.30723 -1.3058 4280568564
-0.1575 0.30588001 -1.3 4280568564
-0.15571 0.30728 -1.306 4280568564
-0.15375 0.30799001 -1.309 4280568564
-0.15155999 0.30756 -1.3071001 4280568564
-0.14955001 0.30803001 -1.3092 4280568564
-0.14737 0.30759999 -1.3073 4280568564
-0.14329 0.30831999 -1.3104 4280568564
-0.14119001 0.30834001 -1.3105 4280568564
-0.13906001 0.30813 -1.3096 4280568564
-0.13692001 0.30792001 -1.3087 4280568564
-0.13276 0.30818 -1.3098 4280568564
-0.18088 0.30846 -1.3052 4280568564
-0.17239 0.30812001 -1.3038 4280568564
-0.17036 0.30838001 -1.3049001 4280568564
-0.16832 0.30864 -1.306 4280568564
-0.16617 0.30844 -1.3051 4280568564
-0.16413 0.3087 -1.3062 4280568564
-0.15984 0.30829 -1.3045 4280568564
-0.1577 0.30809 -1.3036 4280568564
-0.15575001 0.30880001 -1.3066 4280568564
-0.15366 0.30882001 -1.3067 4280568564
-0.15161 0.30906999 -1.3078001 4280568564
-0.14947 0.30886999 -1.3069 4280568564
-0.14741001 0.30912 -1.308 4280568564
-0.14532 0.30914 -1.3081 4280568564
-0.14329 0.30961999 -1.3101 4280568564
-0.14127 0.31009001 -1.3121001 4280568564
-0.13906001 0.30941999 -1.3092999 4280568564
-0.13686 0.30875 -1.3063999 4280568564
-0.13278 0.30970001 -1.3104 4280568564
-0.17245001 0.30963001 -1.3045 4280568564
-0.17036 0.30965999 -1.3046 4280568564
-0.16825999 0.30968001 -1.3047 4280568564
-0.16606 0.30925 -1.3029 4280568564
-0.16396999 0.30928001 -1.303 4280568564
-0.15989 0.30978999 -1.3052 4280568564
-0.15575001 0.31007001 -1.3063 4280568564
-0.15361001 0.30987 -1.3055 4280568564
-0.15155999 0.31011999 -1.3065 4280568564
-0.14938 0.30968001 -1.3047 4280568564
-0.14733 0.30993 -1.3056999 4280568564
-0.1452 0.30972001 -1.3048 4280568564
-0.14309999 0.30974001 -1.3049001 4280568564
-0.13902 0.31047001 -1.308 4280568564
-0.1327 0.31028 -1.3072 4280568564
-0.1767 0.31103 -1.3049001 4280568564
-0.17239 0.31062999 -1.3032 4280568564
-0.17036 0.31088999 -1.3043 4280568564
-0.16825999 0.31092 -1.3044 4280568564
-0.16617 0.31095001 -1.3045 4280568564
-0.16396999 0.31051001 -1.3027 4280568564
-0.16192999 0.31077 -1.3038 4280568564
-0.15571 0.31108001 -1.3051 4280568564
-0.15361001 0.31110001 -1.3052 4280568564
-0.15161 0.31158999 -1.3072 4280568564
-0.14941999 0.31115001 -1.3054 4280568564
-0.14733 0.31117001 -1.3054 4280568564
-0.14515001 0.31072 -1.3036 4280568564
-0.14309999 0.31097001 -1.3046 4280568564
-0.14105 0.31121999 -1.3056999 4280568564
-0.13899 0.31147 -1.3067 4280568564
-0.13692001 0.31172001 -1.3078001 4280568564
-0.13489 0.31220001 -1.3098 4280568564
-0.13278 0.31222001 -1.3098 4280568564
-0.17030001 0.31189001 -1.303 4280568564
-0.16832 0.31237999 -1.3051 4280568564
-0.16402 0.31197 -1.3034 4280568564
-0.15566 0.31207001 -1.3038 4280568564
-0.15361001 0.31233001 -1.3049001 4280568564
-0.15155999 0.31257999 -1.3059 4280568564
-0.14947 0.31261 -1.306 4280568564
-0.14737 0.31263 -1.3061 4280568564
-0.1452 0.31218001 -1.3043 4280568564
-0.14309999 0.31220001 -1.3043 4280568564
-0.14101 0.31222001 -1.3044 4280568564
-0.13686 0.31248999 -1.3055 4280568564
-0.13482 0.31297001 -1.3075 4280568564
-0.13278 0.31345001 -1.3095 4280568564
-0.17042001 0.31355 -1.3047 4280568564
-0.1682 0.31312001 -1.3029 4280568564
-0.16385999 0.31246999 -1.3002 4280568564
-0.15361001 0.31353 -1.3046 4280568564
-0.15152 0.31355 -1.3047 4280568564
-0.14955001 0.31428 -1.3077 4280568564
-0.14535999 0.31432 -1.3079 4280568564
-0.14309999 0.3134 -1.3041 4280568564
-0.13880999 0.31274 -1.3013 4280568564
-0.13682 0.31345999 -1.3043 4280568564
-0.13479 0.31393999 -1.3063 4280568564
-0.1327 0.31395 -1.3063 4280568564
-0.16809 0.31384999 -1.3006001 4280568564
-0.16385999 0.31367999 -1.2999001 4280568564
-0.15133999 0.31382 -1.3005 4280568564
-0.14938 0.31455001 -1.3035001 4280568564
-0.14715999 0.31387001 -1.3006999 4280568564
-0.1452 0.31459001 -1.3037 4280568564
-0.14309999 0.31461 -1.3038 4280568564
-0.14101 0.31463 -1.3038 4280568564
-0.13895001 0.31488001 -1.3049001 4280568564
-0.13688999 0.31513 -1.3059 4280568564
-0.1327 0.31516001 -1.3061 4280568564
-0.16814999 0.31529999 -1.3013 4280568564
-0.16606 0.31533 -1.3013999 4280568564
-0.15143 0.31551 -1.3022 4280568564
-0.14929 0.31529999 -1.3013 4280568564
-0.14733 0.31602001 -1.3043 4280568564
-0.1452 0.31580999 -1.3034 4280568564
-0.14309999 0.31582999 -1.3035001 4280568564
-0.14101 0.31584999 -1.3035001 4280568564
-0.13895001 0.3161 -1.3046 4280568564
-0.13699 0.31705999 -1.3085001 4280568564
-0.13479 0.31637001 -1.3056999 4280568564
-0.1327 0.31637999 -1.3058 4280568564
-0.17036 0.31694999 -1.3028001 4280568564
-0.1682 0.31674001 -1.302 4280568564
-0.14929 0.31650001 -1.301 4280568564
-0.14737 0.31746 -1.3049999 4280568564
-0.1452 0.31700999 -1.3031 4280568564
-0.14314 0.31727001 -1.3041 4280568564
-0.14108001 0.31751999 -1.3052 4280568564
-0.13899 0.31753999 -1.3053 4280568564
-0.13692001 0.31779 -1.3063 4280568564
-0.13473 0.31709999 -1.3035001 4280568564
-0.13267 0.31735 -1.3045 4280568564
-0.17467 0.31852999 -1.3042001 4280568564
-0.17245001 0.31808001 -1.3024 4280568564
-0.17036 0.31810999 -1.3025 4280568564
-0.15155999 0.31858999 -1.3045 4280568564
-0.14934 0.3179 -1.3017 4280568564
-0.14729001 0.31816 -1.3027 4280568564
-0.1452 0.31817999 -1.3028001 4280568564
-0.14314 0.31843999 -1.3039 4280568564
-0.14116 0.31917 -1.3069 4280568564
-0.13895001 0.31847 -1.304 4280568564
-0.13686 0.31849 -1.3041 4280568564
-0.1347 0.31803 -1.3022 4280568564
-0.13260999 0.31805 -1.3023 4280568564
-0.17879 0.31937 -1.3027 4280568564
-0.17460001 0.31944001 -1.303 4280568564
-0.15143 0.31902999 -1.3013 4280568564
-0.14934 0.31905001 -1.3013999 4280568564
-0.1472 0.31883001 -1.3005 4280568564
-0.14511 0.31885999 -1.3006001 4280568564
-0.14306 0.31911001 -1.3016 4280568564
-0.14101 0.31937 -1.3027 4280568564
-0.13891999 0.31939 -1.3028001 4280568564
-0.13682 0.31940001 -1.3028001 4280568564
-0.13473 0.31942001 -1.3029 4280568564
-0.13264 0.31944001 -1.303 4280568564
-0.15133999 0.31966999 -1.2991 4280568564
-0.1472 0.31995001 -1.3002 4280568564
-0.14511 0.31997001 -1.3003 4280568564
-0.14306 0.32023001 -1.3013999 4280568564
-0.14094 0.32001001 -1.3005 4280568564
-0.13891999 0.32049999 -1.3025 4280568564
-0.13682 0.32052001 -1.3026 4280568564
-0.13476001 0.32077 -1.3036 4280568564
-0.14741001 0.32225001 -1.3048 4280568564
-0.14511 0.32108 -1.3 4280568564
-0.14303 0.3211 -1.3001 4280568564
-0.13686 0.32187 -1.3032 4280568564
-0.14929 0.32212999 -1.2996 4280568564
-0.14729001 0.32262999 -1.3016 4280568564
-0.1452 0.32266 -1.3017 4280568564
-0.14309999 0.32268 -1.3018 4280568564
-0.13885 0.32223001 -1.3 4280568564
-0.15129 0.32273999 -1.2973 4280568564
-0.14921001 0.32275999 -1.2974 4280568564
-0.14715999 0.32302999 -1.2984 4280568564
-0.14523999 0.32401001 -1.3024 4280568564
-0.13885 0.32335001 -1.2997 4280568564
-0.15138 0.32438001 -1.2989 4280568564
-0.14929 0.32440001 -1.299 4280568564
-0.14712 0.32394001 -1.2972 4280568564
-0.1452 0.32493001 -1.3011 4280568564
-0.13888 0.32473999 -1.3004 4280568564
-0.15129 0.32499999 -1.2967 4280568564
-0.14925 0.32526001 -1.2977999 4280568564
-0.14712 0.32504001 -1.2969 4280568564
-0.14523999 0.32628 -1.3018 4280568564
-0.13899 0.32657999 -1.303 4280568564
-0.14921001 0.32604 -1.2966 4280568564
-0.14715999 0.32631001 -1.2976 4280568564
-0.14083 0.32587999 -1.2959 4280568564
-0.13878 0.32613999 -1.2970001 4280568564
-0.14086001 0.32712999 -1.2966 4280568564
-0.13878 0.32714999 -1.2967 4280568564
-0.13878 0.32811001 -1.2965 4280568564
