# .PCD v0.7 - Point Cloud Data file format
VERSION 0.7
FIELDS x y z rgb
SIZE 4 4 4 4
TYPE F F F U
COUNT 1 1 1 1
WIDTH 154
HEIGHT 1
VIEWPOINT 0 0 0 1 0 0 0
POINTS 154
DATA ascii
-0.77763999 -0.64749002 -1.1351 4286509926
-0.77916998 -0.64454001 -1.1344 4286509926
-0.77714002 -0.64512998 -1.1354001 4286509926
-0.77662998 -0.64431 -1.1349 4286509926
-0.77864999 -0.64556003 -1.1382 4286509926
-0.78118998 -0.64494002 -1.1381 4286509926
-0.78066999 -0.64631999 -1.1417 4286509926
-0.77763999 -0.64328003 -1.1375 4286509926
-0.77968001 -0.64218003 -1.1367 4286509926
-0.78220999 -0.64379001 -1.1408 4286509926
-0.78069001 -0.64205003 -1.1388 4286509926
-0.77916002 -0.64306003 -1.1406 4286509926
-0.78069001 -0.63931 -1.135 4286509926
-0.77866 -0.63990003 -1.136 4286509926
-0.78271002 -0.64271998 -1.1424 4286509926
-0.78220999 -0.63885999 -1.1382 4286509926
-0.78017998 -0.63945001 -1.1393 4286509926
-0.77916998 -0.63802999 -1.1381 4286509926
-0.78220999 -0.64001 -1.1429 4286509926
-0.78220999 -0.63718998 -1.1391 4286509926
-0.78017998 -0.63777 -1.1402 4286509926
-0.78118998 -0.63793999 -1.1421 4286509926
-0.78780001 -0.63988 -1.1485 4286509926
-0.78627002 -0.63805997 -1.1466 4286509926
-0.78321999 -0.63779998 -1.1461 4286509926
-0.78171003 -0.6336 -1.1402 4286509926
-0.77714998 -0.63208997 -1.1374 4286509926
-0.78170002 -0.63064998 -1.1365 4286509926
-0.77968001 -0.63123 -1.1375 4286509926
-0.78729999 -0.63317001 -1.1459 4286509926
-0.78526002 -0.63375998 -1.147 4286509926
-0.78373998 -0.63183999 -1.1451 4286509926
-0.78119999 -0.62901998 -1.1417 4286509926
-0.78271002 -0.62593001 -1.1411 4286509926
-0.78017998 -0.62608999 -1.1414 4286509926
-0.78728998 -0.62658 -1.1442 4286509926
-0.78424001 -0.62633002 -1.1438 4286509926
-0.78577 -0.62671 -1.1465 4286509926
-0.78983998 -0.62458998 -1.1502 4286509926
-0.78372997 -0.62187999 -1.1452 4286509926
-0.78675997 -0.61909997 -1.1421 4286509926
-0.78422999 -0.61926001 -1.1424 4286509926
-0.78728998 -0.62089998 -1.1473 4286509926
-0.79392999 -0.62224001 -1.154 4286509926
-0.79238999 -0.62011999 -1.1522 4286509926
-0.78728998 -0.61825001 -1.1488 4286509926
-0.78881001 -0.61637002 -1.1474 4286509926
-0.78166997 -0.61286998 -1.1409 4286509926
-0.78517997 -0.61043 -1.1385 4286509926
-0.78316998 -0.611 -1.1396 4286509926
-0.81702 -0.63463002 -1.1859 4286509926
-0.78420001 -0.61091 -1.1416 4286509926
-0.81383997 -0.63663 -1.1896 4286509926
-0.81287003 -0.63260001 -1.1845 4286509926
-0.82735997 -0.63849002 -1.198 4286509926
-0.78983003 -0.61254001 -1.1514 4286509926
-0.79391003 -0.61269999 -1.1539 4286509926
-0.78931999 -0.61126 -1.1511 4286509926
-0.78975999 -0.60628998 -1.1442 4286509926
-0.78775001 -0.60685003 -1.1453 4286509926
-0.78877997 -0.60662001 -1.1474 4286509926
-0.82157999 -0.63449001 -1.2000999 4286509926
-0.82582003 -0.63239002 -1.1983 4286509926
-0.83516002 -0.63516998 -1.209 4286509926
-0.81705999 -0.62233001 -1.1871001 4286509926
-0.79952002 -0.60557997 -1.1578 4286509926
-0.7877 -0.59754002 -1.145 4286509926
-0.78873003 -0.59737003 -1.147 4286509926
-0.79275 -0.59507 -1.1454999 4286509926
-0.79074001 -0.59562999 -1.1465 4286509926
-0.82383001 -0.61760002 -1.1916 4286509926
-0.79126 -0.59494001 -1.1479 4286509926
-0.83056003 -0.62168998 -1.202 4286509926
-0.79848999 -0.59947002 -1.159 4286509926
-0.80357999 -0.59789002 -1.159 4286509926
-0.79895997 -0.59649003 -1.1562999 4286509926
-0.84202999 -0.62568998 -1.2158 4286509926
-0.82018 -0.61252999 -1.1927 4286509926
-0.84676999 -0.62484002 -1.2196 4286509926
-0.79786998 -0.58917999 -1.1529 4286509926
-0.79430002 -0.58857 -1.1517 4286509926
-0.80150002 -0.59068 -1.1588 4286509926
-0.79584998 -0.58851999 -1.1546 4286509926
-0.79571003 -0.58319998 -1.1469001 4286509926
-0.79370999 -0.58375001 -1.148 4286509926
-0.81707001 -0.59792 -1.1787 4286509926
-0.79215002 -0.58148003 -1.1463 4286509926
-0.83885002 -0.61839998 -1.219 4286509926
-0.81759 -0.59717 -1.1799999 4286509926
-0.79267001 -0.58076 -1.1476001 4286509926
-0.83885002 -0.61723 -1.2196 4286509926
-0.79614002 -0.57818002 -1.1452 4286509926
-0.79363 -0.57833999 -1.1454999 4286509926
-0.83376002 -0.60464001 -1.2006 4286509926
-0.79623002 -0.57911998 -1.1499 4286509926
-0.81186002 -0.58945 -1.1734 4286509926
-0.81123 -0.5837 -1.1648999 4286509926
-0.80241001 -0.57928997 -1.1561 4286509926
-0.84581 -0.60764998 -1.2158 4286509926
-0.80711001 -0.58155 -1.1635 4286509926
-0.85838997 -0.61558002 -1.2347 4286509926
-0.82748997 -0.59525001 -1.1939 4286509926
-0.83427 -0.59483999 -1.196 4286509926
-0.82222998 -0.58820999 -1.1826 4286509926
-0.8369 -0.60092002 -1.2082 4286509926
-0.80598998 -0.57523 -1.1596 4286509926
-0.80241001 -0.57464999 -1.1584001 4286509926
-0.81331998 -0.57928997 -1.1709 4286509926
-0.80607003 -0.57606 -1.1644 4286509926
-0.80116999 -0.56737 -1.1497999 4286509926
-0.79917997 -0.56792003 -1.1509 4286509926
-0.80905002 -0.57185 -1.1618 4286509926
-0.79917997 -0.56674999 -1.1514 4286509926
-0.81010002 -0.57146001 -1.1639 4286509926
-0.80075002 -0.56674999 -1.1543 4286509926
-0.79736 -0.55931002 -1.1418999 4286509926
-0.79539001 -0.55984998 -1.143 4286509926
-0.80431998 -0.56507999 -1.1566 4286509926
-0.84842998 -0.59851998 -1.225 4286509926
-0.83477998 -0.58350998 -1.1973 4286509926
-0.80800003 -0.56655997 -1.1625 4286509926
-0.85105002 -0.59919 -1.2294 4286509926
-0.79986 -0.55571997 -1.1433001 4286509926
-0.79789001 -0.55624998 -1.1444 4286509926
-0.84794998 -0.58819997 -1.2134 4286509926
-0.80263001 -0.55836999 -1.1519001 4286509926
-0.81580001 -0.56651002 -1.1715 4286509926
-0.80659997 -0.55509001 -1.1507 4286509926
-0.80197001 -0.55378002 -1.148 4286509926
-0.83056003 -0.57449001 -1.1941 4286509926
-0.84372002 -0.58037001 -1.2096 4286509926
-0.82950997 -0.57248002 -1.1932 4286509926
-0.81667 -0.55732 -1.1675 4286509926
-0.80725998 -0.55273998 -1.1579 4286509926
-0.81413001 -0.55633998 -1.1684 4286509926
-0.80910999 -0.54793 -1.1537 4286509926
-0.80712998 -0.54846001 -1.1548001 4286509926
-0.80395001 -0.54514998 -1.1507 4286509926
-0.80712998 -0.54619002 -1.1559 4286509926
-0.80576003 -0.54039001 -1.1465 4286509926
-0.80379999 -0.54091001 -1.1476001 4286509926
-0.80628997 -0.53963 -1.1478 4286509926
-0.80379999 -0.53978997 -1.1482 4286509926
-0.80789 -0.53952998 -1.1507 4286509926
-0.80539 -0.53969002 -1.151 4286509926
-0.85535002 -0.57550001 -1.2273999 4286509926
-0.80505002 -0.53457999 -1.1432 4286509926
-0.80772001 -0.53523999 -1.1476001 4286509926
-0.80309999 -0.53397 -1.1449 4286509926
-0.80772001 -0.5341 -1.1481 4286509926
-0.80203003 -0.53213 -1.1438 4286509926
-0.80808002 -0.53134 -1.1452 4286509926
-0.80558997 -0.53151 -1.1456 4286509926
-0.81787997 -0.53850001 -1.1638 4286509926
