# .PCD v0.7 - Point Cloud Data file format
VERSION 0.7
FIELDS x y z rgb
SIZE 4 4 4 4
TYPE F F F U
COUNT 1 1 1 1
WIDTH 203
HEIGHT 1
VIEWPOINT 0 0 0 1 0 0 0
POINTS 203
DATA ascii
-0.76328999 -0.49246001 -1.2243 4286776638
-0.77241999 -0.49191001 -1.2264 4286776638
-0.76633 -0.49149001 -1.2253 4286776638
-0.77648002 -0.49155 -1.229 4286776638
-0.77192998 -0.49037001 -1.226 4286776638
-0.76591003 -0.48822999 -1.2207 4286776638
-0.76582998 -0.48995 -1.225 4286776638
-0.76673001 -0.49233001 -1.2309 4286776638
-0.76837999 -0.48862001 -1.2252001 4286776638
-0.76525998 -0.49013001 -1.229 4286776638
-0.77241999 -0.48824 -1.2278 4286776638
-0.76937002 -0.48804 -1.2273 4286776638
-0.76731998 -0.48846999 -1.2284 4286776638
-0.76525998 -0.48890001 -1.2295001 4286776638
-0.77598 -0.48754001 -1.2296 4286776638
-0.76994002 -0.48541999 -1.2243 4286776638
-0.76639998 -0.48489001 -1.223 4286776638
-0.76533997 -0.48596001 -1.2257 4286776638
-0.77241999 -0.48579001 -1.2288001 4286776638
-0.7669 -0.48398 -1.2242 4286776638
-0.76385999 -0.48377001 -1.2237 4286776638
-0.76279002 -0.48484001 -1.2264 4286776638
-0.77292001 -0.48488 -1.2301 4286776638
-0.76739001 -0.48308 -1.2255 4286776638
-0.76485002 -0.48319 -1.2258 4286776638
-0.76279002 -0.48361999 -1.2269 4286776638
-0.77498001 -0.48326001 -1.2295001 4286776638
-0.76944 -0.48146999 -1.2249 4286776638
-0.76541001 -0.48063001 -1.2228 4286776638
-0.76385999 -0.48137 -1.2247 4286776638
-0.77143002 -0.48157001 -1.2286 4286776638
-0.76591003 -0.47977999 -1.224 4286776638
-0.76385999 -0.48021001 -1.2251 4286776638
-0.77143002 -0.48032001 -1.2291 4286776638
-0.7669 -0.47916001 -1.2261 4286776638
-0.76385999 -0.47894999 -1.2256 4286776638
-0.76378 -0.48063999 -1.2299 4286776638
-0.77648002 -0.48047999 -1.2333 4286776638
-0.76944 -0.47775999 -1.2264 4286776638
-0.76441997 -0.4763 -1.2226 4286776638
-0.76187998 -0.47639999 -1.2229 4286776638
-0.77292001 -0.47876999 -1.2325 4286776638
-0.76591003 -0.47604999 -1.2255 4286776638
-0.76287001 -0.47584 -1.225 4286776638
-0.77292001 -0.47760001 -1.2329 4286776638
-0.76639998 -0.4752 -1.2266999 4286776638
-0.76336002 -0.47499001 -1.2262 4286776638
-0.76131999 -0.47541001 -1.2273 4286776638
-0.77447999 -0.47558999 -1.2315 4286776638
-0.77043998 -0.47476 -1.2294 4286776638
-0.76292998 -0.47174001 -1.2216001 4286776638
-0.76287001 -0.47341001 -1.2259001 4286776638
-0.77092999 -0.47376001 -1.2307 4286776638
-0.76591003 -0.47231001 -1.2269 4286776638
-0.76187998 -0.47148001 -1.2248 4286776638
-0.77241999 -0.4734 -1.2336 4286776638
-0.76639998 -0.47132999 -1.2282 4286776638
-0.7604 -0.46924999 -1.2228 4286776638
-0.76131999 -0.47154 -1.2288001 4286776638
-0.77547997 -0.47229999 -1.2345999 4286776638
-0.77143002 -0.47148001 -1.2325 4286776638
-0.76244003 -0.46755001 -1.2222 4286776638
-0.75990999 -0.46766001 -1.2225 4286776638
-0.77143002 -0.47033 -1.2329 4286776638
-0.76591003 -0.46858001 -1.2284 4286776638
-0.75990999 -0.46652001 -1.223 4286776638
-0.77292001 -0.47013 -1.2358 4286776638
-0.76541001 -0.46715 -1.228 4286776638
-0.7604 -0.46571001 -1.2242 4286776638
-0.75984001 -0.46704999 -1.2277 4286776638
-0.77498001 -0.46843001 -1.2352 4286776638
-0.77043998 -0.46731001 -1.2322 4286776638
-0.76194 -0.46371999 -1.2228 4286776638
-0.75990999 -0.46413001 -1.2239 4286776638
-0.77143002 -0.46661001 -1.2344 4286776638
-0.76541001 -0.46456999 -1.229 4286776638
-0.7604 -0.46314001 -1.2252001 4286776638
-0.77341998 -0.46663001 -1.2381001 4286776638
-0.76591003 -0.46368 -1.2302001 4286776638
-0.76138997 -0.46256 -1.2272 4286776638
-0.76081997 -0.46388999 -1.2308 4286776638
-0.77547997 -0.46502 -1.2374001 4286776638
-0.76894999 -0.46269 -1.2312 4286776638
-0.76095003 -0.45943999 -1.2225 4286776638
-0.75892001 -0.45984 -1.2236 4286776638
-0.77241999 -0.46364 -1.2373 4286776638
-0.76441997 -0.46039 -1.2287 4286776638
-0.75990999 -0.45928001 -1.2257 4286776638
-0.77490997 -0.46397001 -1.2418 4286776638
-0.76441997 -0.45921001 -1.2291 4286776638
-0.75990999 -0.45809999 -1.2261 4286776638
-0.76279002 -0.46155 -1.2354 4286776638
-0.77697003 -0.46228001 -1.2412 4286776638
-0.77143002 -0.46057999 -1.2366 4286776638
-0.75945997 -0.45491999 -1.2214 4286776638
-0.75841999 -0.45592999 -1.2242 4286776638
-0.77292001 -0.46020001 -1.2395 4286776638
-0.76343 -0.45607001 -1.2284 4286776638
-0.75694001 -0.45375001 -1.2222 4286776638
-0.77341998 -0.45923999 -1.2408 4286776638
-0.76541001 -0.45603001 -1.2322 4286776638
-0.75792998 -0.45311001 -1.2243 4286776638
-0.76378 -0.45835 -1.2384 4286776638
-0.77746999 -0.45877001 -1.2434 4286776638
-0.76646 -0.45378 -1.2299 4286776638
-0.76046002 -0.45177999 -1.2244999 4286776638
-0.75841999 -0.45218 -1.2255 4286776638
-0.77341998 -0.45675001 -1.2417001 4286776638
-0.76194 -0.45146 -1.2273999 4286776638
-0.75594997 -0.44946 -1.2219 4286776638
-0.77392 -0.45581999 -1.243 4286776638
-0.76343 -0.45115 -1.2302001 4286776638
-0.77746999 -0.45500001 -1.2448 4286776638
-0.77043998 -0.45243001 -1.2378 4286776638
-0.75996 -0.44777 -1.225 4286776638
-0.7604 -0.44966 -1.2302001 4286776638
-0.77341998 -0.45289999 -1.2431 4286776638
-0.76046002 -0.44676 -1.2263 4286776638
-0.75645 -0.44595999 -1.2241 4286776638
-0.77341998 -0.4517 -1.2436 4286776638
-0.76046002 -0.44558001 -1.2266999 4286776638
-0.75645 -0.44477999 -1.2244999 4286776638
-0.77447999 -0.44951999 -1.2413 4286776638
-0.76446998 -0.4452 -1.2293 4286776638
-0.75945997 -0.44382 -1.2255 4286776638
-0.75892001 -0.44510001 -1.2291 4286776638
-0.77143002 -0.44806001 -1.2412 4286776638
-0.76046002 -0.44315001 -1.2276 4286776638
-0.75792998 -0.44325 -1.2279 4286776638
-0.77392 -0.44824001 -1.2458 4286776638
-0.75847 -0.44069999 -1.2248 4286776638
-0.75645 -0.44108999 -1.2259001 4286776638
-0.76138997 -0.44277999 -1.2345001 4286776638
-0.77490997 -0.4463 -1.2483 4286776638
-0.77292001 -0.44394001 -1.2455 4286776638
-0.87103999 -0.48756999 -1.372 4286776638
-0.78038001 -0.44452 -1.2591 4286776638
-0.77789003 -0.44067001 -1.2558 4286776638
-0.81616002 -0.45741001 -1.3207 4286776638
-0.85530001 -0.46517 -1.3515 4286776638
-0.81715 -0.45545 -1.3233 4286776638
-0.78706998 -0.44154999 -1.2829 4286776638
-0.88712001 -0.47620001 -1.388 4286776638
-0.83376002 -0.45852 -1.3365 4286776638
-0.83256 -0.46285999 -1.3491 4286776638
-0.88148999 -0.47036999 -1.38 4286776638
-0.8682 -0.47849 -1.4038 4286776638
-0.78038001 -0.43077001 -1.2638 4286776638
-0.81770003 -0.4551 -1.3352 4286776638
-0.79404002 -0.43403 -1.2776 4286776638
-0.82981998 -0.45561001 -1.3411 4286776638
-0.78038001 -0.42951 -1.2643 4286776638
-0.79203999 -0.43162999 -1.2747 4286776638
-0.78843999 -0.43118 -1.2733999 4286776638
-0.78411001 -0.43215999 -1.2806 4286776638
-0.85574001 -0.46967 -1.401 4286776638
-0.85459 -0.45750999 -1.3692 4286776638
-0.77077001 -0.42087001 -1.2596 4286776638
-0.78711998 -0.42115 -1.2642 4286776638
-0.85358 -0.45423999 -1.3685 4286776638
-0.79942 -0.43425 -1.3083 4286776638
-0.78254002 -0.41754001 -1.2621 4286776638
-0.79303998 -0.42210001 -1.2797 4286776638
-0.84552002 -0.45888999 -1.3913 4286776638
-0.85833001 -0.45434999 -1.3825999 4286776638
-0.87739998 -0.45489001 -1.3890001 4286776638
-0.83304 -0.44097 -1.3465 4286776638
-0.83765 -0.45162001 -1.3789999 4286776638
-0.79725999 -0.42820999 -1.3116 4286776638
-0.79092997 -0.41591999 -1.283 4286776638
-0.80563998 -0.43002 -1.3265001 4286776638
-0.80787998 -0.42379001 -1.3115 4286776638
-0.81746 -0.43367001 -1.3473001 4286776638
-0.84377003 -0.44003999 -1.3717999 4286776638
-0.84469002 -0.44867 -1.3987 4286776638
-0.78921002 -0.41742 -1.3053 4286776638
-0.83530003 -0.43158999 -1.359 4286776638
-0.82230002 -0.43294001 -1.3676 4286776638
-0.86925 -0.43720999 -1.3911999 4286776638
-0.82981998 -0.42466 -1.3512 4286776638
-0.78217 -0.40864 -1.3002 4286776638
-0.84676999 -0.43228999 -1.3796999 4286776638
-0.80239999 -0.40656 -1.3069 4286776638
-0.81485999 -0.41161999 -1.3281 4286776638
-0.79690999 -0.39971 -1.2991 4286776638
-0.80328 -0.39732 -1.296 4286776638
-0.79841 -0.39916 -1.302 4286776638
-0.81753999 -0.40608001 -1.3293 4286776638
-0.80140001 -0.40112999 -1.3224 4286776638
-0.83873999 -0.41596001 -1.3811001 4286776638
-0.80304003 -0.39221999 -1.3073 4286776638
-0.80435997 -0.39862001 -1.3286999 4286776638
-0.87036997 -0.42144999 -1.4147 4286776638
-0.81743997 -0.40116 -1.3466001 4286776638
-0.84749001 -0.41927001 -1.4073 4286776638
-0.82459998 -0.41376999 -1.3889 4286776638
-0.85332 -0.41167 -1.3868999 4286776638
-0.80517 -0.38668999 -1.3077 4286776638
-0.82735002 -0.40197 -1.3644 4286776638
-0.84653997 -0.40296 -1.3827 4286776638
-0.82634997 -0.39748999 -1.3638999 4286776638
-0.83032 -0.39522001 -1.3717999 4286776638
-0.82981998 -0.391 -1.3721 4286776638
