# .PCD v0.7 - Point Cloud Data file format
VERSION 0.7
FIELDS x y z rgb
SIZE 4 4 4 4
TYPE F F F U
COUNT 1 1 1 1
WIDTH 1150
HEIGHT 1
VIEWPOINT 0 0 0 1 0 0 0
POINTS 1150
DATA ascii
-0.67746001 -0.44494 -1.3316 4291535310
-0.67900002 -0.44784999 -1.3403 4291535310
-0.67967999 -0.45019001 -1.3473001 4291535310
-0.69067001 -0.45975 -1.3759 4291535310
-0.73078001 -0.48982 -1.4658999 4291535310
-0.67694998 -0.43439999 -1.304 4291535310
-0.67606997 -0.43557999 -1.3075 4291535310
-0.67729002 -0.43819001 -1.3153 4291535310
-0.67637998 -0.43937001 -1.3189 4291535310
-0.67588001 -0.44084001 -1.3233 4291535310
-0.67495 -0.44202 -1.3268 4291535310
-0.67900002 -0.44664001 -1.3407 4291535310
-0.68010002 -0.44927001 -1.3486 4291535310
-0.69025999 -0.45822001 -1.3755 4291535310
-0.72048998 -0.4813 -1.4448 4291535310
-0.67822999 -0.43384001 -1.307 4291535310
-0.67777002 -0.43529999 -1.3114001 4291535310
-0.67602998 -0.4359 -1.3132 4291535310
-0.67681003 -0.43821999 -1.3202 4291535310
-0.67882001 -0.44139999 -1.3298 4291535310
-0.67954999 -0.44372001 -1.3368 4291535310
-0.67983001 -0.44576001 -1.3429 4291535310
-0.69088 -0.45524999 -1.3715 4291535310
-0.72289997 -0.47939 -1.4443001 4291535310
-0.67822999 -0.43254 -1.3074 4291535310
-0.67649001 -0.43314999 -1.3092999 4291535310
-0.67602998 -0.4346 -1.3137 4291535310
-0.67427999 -0.43520001 -1.3155 4291535310
-0.67714 -0.43893999 -1.3268 4291535310
-0.67954999 -0.44240001 -1.3372 4291535310
-0.68024999 -0.44472 -1.3442 4291535310
-0.69253999 -0.45504001 -1.3753999 4291535310
-0.72123998 -0.47681999 -1.4413 4291535310
-0.72213 -0.47944999 -1.4492 4291535310
-0.6778 -0.43109 -1.307 4291535310
-0.67733997 -0.43254 -1.3114001 4291535310
-0.67602998 -0.43342 -1.3141 4291535310
-0.67470002 -0.43430999 -1.3167 4291535310
-0.67629999 -0.43718001 -1.3255 4291535310
-0.68164003 -0.44262001 -1.3419 4291535310
-0.68067002 -0.44378999 -1.3455 4291535310
-0.69419998 -0.45493999 -1.3793 4291535310
-0.69563001 -0.45784 -1.3881 4291535310
-0.69578999 -0.45987999 -1.3943 4291535310
-0.68077999 -0.43162999 -1.3135 4291535310
-0.67945999 -0.43250999 -1.3162 4291535310
-0.67772001 -0.43311 -1.318 4291535310
-0.67932999 -0.43597999 -1.3267 4291535310
-0.68008 -0.43827999 -1.3336999 4291535310
-0.68122 -0.44086 -1.3415999 4291535310
-0.70223999 -0.46086001 -1.4024 4291535310
-0.69990999 -0.46118999 -1.4033999 4291535310
-0.67865002 -0.42888999 -1.3096 4291535310
-0.67818999 -0.43033999 -1.314 4291535310
-0.67729002 -0.43149999 -1.3176 4291535310
-0.67637998 -0.43266001 -1.3211 4291535310
-0.68049997 -0.43720999 -1.335 4291535310
-0.67870998 -0.43781 -1.3368 4291535310
-0.73686999 -0.47916001 -1.4631 4291535310
-0.72702998 -0.47645 -1.4548 4291535310
-0.70361 -0.46232 -1.4117 4291535310
-0.67822999 -0.42741999 -1.3091 4291535310
-0.67649001 -0.42800999 -1.311 4291535310
-0.67645001 -0.42973 -1.3162 4291535310
-0.67553997 -0.43088999 -1.3198 4291535310
-0.67839998 -0.43459001 -1.3311 4291535310
-0.67913002 -0.43687001 -1.3381 4291535310
-0.73769999 -0.47839001 -1.4651999 4291535310
-0.74562001 -0.48784 -1.4942 4291535310
-0.72213 -0.47376999 -1.4511 4291535310
-0.67953002 -0.4251 -1.3069 4291535310
-0.6778 -0.42569 -1.3087 4291535310
-0.67777002 -0.42741001 -1.314 4291535310
-0.67645001 -0.42828 -1.3167 4291535310
-0.67764997 -0.43083999 -1.3246 4291535310
-0.67923999 -0.43368 -1.3333 4291535310
-0.74725002 -0.48120001 -1.4794 4291535310
-0.70389003 -0.45774001 -1.4073 4291535310
-0.70156002 -0.45807001 -1.4083 4291535310
-0.67695999 -0.42212 -1.3022 4291535310
-0.67822999 -0.42467001 -1.3099999 4291535310
-0.67692 -0.42554 -1.3127 4291535310
-0.67518002 -0.42613 -1.3145 4291535310
-0.67637998 -0.42868 -1.3224 4291535310
-0.67882001 -0.43206999 -1.3329 4291535310
-0.71089 -0.45535001 -1.4047 4291535310
-0.71555001 -0.46621999 -1.4382 4291535310
-0.67738998 -0.41949001 -1.2982 4291535310
-0.67782003 -0.42146999 -1.3043 4291535310
-0.67738003 -0.42289001 -1.3087 4291535310
-0.67692 -0.42432001 -1.3131 4291535310
-0.67559999 -0.42519 -1.3158 4291535310
-0.67848998 -0.42884001 -1.3271 4291535310
-0.67923999 -0.43110999 -1.3341 4291535310
-0.71004999 -0.45348999 -1.4033999 4291535310
-0.72953999 -0.47441 -1.4681 4291535310
-0.73201001 -0.47812 -1.4796 4291535310
-0.67952001 -0.41769999 -1.2977 4291535310
-0.67953002 -0.41938999 -1.3029 4291535310
-0.67866999 -0.42052999 -1.3065 4291535310
-0.67651999 -0.42085001 -1.3075 4291535310
-0.67692 -0.42282 -1.3135999 4291535310
-0.68024999 -0.42673999 -1.3257999 4291535310
-0.68058997 -0.42872 -1.3319 4291535310
-0.70188999 -0.44459999 -1.3813 4291535310
-0.73488998 -0.47637001 -1.4799 4291535310
-0.67825001 -0.41725999 -1.3008 4291535310
-0.67738998 -0.41839001 -1.3043 4291535310
-0.67567003 -0.41898 -1.3062 4291535310
-0.67436999 -0.41984001 -1.3088 4291535310
-0.67940998 -0.42484999 -1.3245 4291535310
-0.67975003 -0.42682999 -1.3306 4291535310
-0.73983002 -0.47821999 -1.4908 4291535310
-0.72504997 -0.4702 -1.4658999 4291535310
-0.67607999 -0.41303 -1.2916 4291535310
-0.67738998 -0.41554001 -1.2994 4291535310
-0.67695999 -0.41694999 -1.3038 4291535310
-0.67651999 -0.41835999 -1.3083 4291535310
-0.67436999 -0.41866001 -1.3092 4291535310
-0.67602998 -0.42144999 -1.3178999 4291535310
-0.67891002 -0.42508 -1.3293 4291535310
-0.69265997 -0.43588999 -1.3631001 4291535310
-0.73159999 -0.47132999 -1.4739 4291535310
-0.69717002 -0.44999 -1.4072 4291535310
-0.67865998 -0.41343001 -1.2972 4291535310
-0.67825001 -0.41483 -1.3016 4291535310
-0.67782003 -0.41624001 -1.306 4291535310
-0.67738003 -0.41765001 -1.3104 4291535310
-0.67818999 -0.41988 -1.3174 4291535310
-0.67983001 -0.42265999 -1.3261 4291535310
-0.72254002 -0.46382001 -1.4553 4291535310
-0.72013003 -0.46415001 -1.4563 4291535310
-0.67818999 -0.41012999 -1.2915 4291535310
-0.67694002 -0.41097999 -1.2941 4291535310
-0.67782003 -0.41319999 -1.3011 4291535310
-0.67782003 -0.41486999 -1.3063999 4291535310
-0.67610002 -0.41545001 -1.3082 4291535310
-0.67649001 -0.4174 -1.3144 4291535310
-0.67856002 -0.42045 -1.324 4291535310
-0.73159999 -0.46836999 -1.4749 4291535310
-0.71438998 -0.45875999 -1.4446 4291535310
-0.67818999 -0.40897 -1.2918 4291535310
-0.67822999 -0.41062999 -1.2970999 4291535310
-0.67909998 -0.41284999 -1.3041 4291535310
-0.67695999 -0.41315001 -1.3051 4291535310
-0.67567003 -0.414 -1.3077 4291535310
-0.67649001 -0.41622001 -1.3147 4291535310
-0.67940998 -0.41981 -1.3261 4291535310
-0.69225001 -0.44260001 -1.3981 4291535310
-0.67992002 -0.40874001 -1.2957 4291535310
-0.68037999 -0.41068 -1.3018 4291535310
-0.67825001 -0.41099 -1.3028001 4291535310
-0.67738998 -0.41211 -1.3063 4291535310
-0.67992997 -0.4154 -1.3168 4291535310
-0.68159002 -0.41815999 -1.3255 4291535310
-0.68110001 -0.41955999 -1.33 4291535310
-0.71678001 -0.45568001 -1.4445 4291535310
-0.71438998 -0.456 -1.4455 4291535310
-0.67690003 -0.40544999 -1.2901 4291535310
-0.67865998 -0.40819001 -1.2988 4291535310
-0.67695999 -0.40876001 -1.3006001 4291535310
-0.67567998 -0.40961 -1.3033 4291535310
-0.6778 -0.41262001 -1.3128999 4291535310
-0.67818999 -0.41455999 -1.3191 4291535310
-0.67897999 -0.41676 -1.3261 4291535310
-0.72377998 -0.45875999 -1.4597 4291535310
-0.70946997 -0.45116001 -1.4355 4291535310
-0.67690003 -0.40432 -1.2905 4291535310
-0.67650998 -0.4057 -1.2948999 4291535310
-0.67653 -0.40735 -1.3001 4291535310
-0.67524999 -0.40819001 -1.3028001 4291535310
-0.67567003 -0.41012001 -1.309 4291535310
-0.67818999 -0.41339999 -1.3194 4291535310
-0.67897999 -0.4156 -1.3265001 4291535310
-0.69553 -0.44062001 -1.4062999 4291535310
-0.67813998 -0.40217 -1.2882 4291535310
-0.67905998 -0.40436 -1.2952 4291535310
-0.6778 -0.4052 -1.2979 4291535310
-0.67782003 -0.40684 -1.3031 4291535310
-0.67782003 -0.40849 -1.3084 4291535310
-0.67865002 -0.41068 -1.3154 4291535310
-0.68031001 -0.41341001 -1.3242 4291535310
-0.74562001 -0.46843001 -1.5003999 4291535310
-0.73777002 -0.46524 -1.4902 4291535310
-0.67944002 -0.40165001 -1.2912 4291535310
-0.67905998 -0.40303001 -1.2956001 4291535310
-0.6778 -0.40386 -1.2983 4291535310
-0.67738998 -0.40524 -1.3027 4291535310
-0.67738998 -0.40687999 -1.308 4291535310
-0.6778 -0.40878999 -1.3141 4291535310
-0.67818999 -0.41071001 -1.3203 4291535310
-0.73266 -0.44707999 -1.4372 4291535310
-0.74436003 -0.46803999 -1.5046 4291535310
-0.67988002 -0.40057999 -1.2924 4291535310
-0.67818999 -0.40114999 -1.2943 4291535310
-0.67822999 -0.40279001 -1.2996 4291535310
-0.67695999 -0.40362 -1.3022 4291535310
-0.67654002 -0.40498999 -1.3067 4291535310
-0.6778 -0.40742999 -1.3145 4291535310
-0.67818999 -0.40933999 -1.3207 4291535310
-0.73180997 -0.44506001 -1.4359 4291535310
-0.74436003 -0.46647999 -1.5051 4291535310
-0.67856997 -0.39844 -1.2903 4291535310
-0.67905998 -0.40033999 -1.2964 4291535310
-0.67909002 -0.40197 -1.3017 4291535310
-0.67825001 -0.40307 -1.3053 4291535310
-0.67995 -0.40577 -1.314 4291535310
-0.67992997 -0.40740001 -1.3193001 4291535310
-0.74054998 -0.44725001 -1.4483 4291535310
-0.73528999 -0.45706001 -1.4801 4291535310
-0.74518001 -0.46546 -1.5073 4291535310
-0.67727 -0.39634001 -1.2881 4291535310
-0.67733002 -0.39796001 -1.2934 4291535310
-0.67865998 -0.40037999 -1.3012 4291535310
-0.67695999 -0.40094 -1.3031 4291535310
-0.67782003 -0.40310001 -1.3101 4291535310
-0.68036002 -0.40632999 -1.3206 4291535310
-0.70704001 -0.42473 -1.3803999 4291535310
-0.70554 -0.43627 -1.4179 4291535310
-0.70485002 -0.43765 -1.4224 4291535310
-0.67727 -0.39502999 -1.2885 4291535310
-0.67733002 -0.39664999 -1.2938 4291535310
-0.67607999 -0.39747 -1.2965 4291535310
-0.67653 -0.39936 -1.3026 4291535310
-0.67611003 -0.40072 -1.307 4291535310
-0.68120998 -0.40551999 -1.3227 4291535310
-0.71000999 -0.42519 -1.3868999 4291535310
-0.73152 -0.44973001 -1.4669 4291535310
-0.68571001 -0.42201999 -1.3765 4291535310
-0.72296 -0.44797 -1.4612 4291535310
-0.67894 -0.39317 -1.2871 4291535310
-0.67988002 -0.39531001 -1.2941 4291535310
-0.67905998 -0.39638999 -1.2976 4291535310
-0.67865998 -0.39774001 -1.302 4291535310
-0.67695999 -0.39829999 -1.3039 4291535310
-0.67953002 -0.40149999 -1.3144 4291535310
-0.70249999 -0.4174 -1.3664 4291535310
-0.67764002 -0.39107999 -1.2849 4291535310
-0.67684001 -0.39216 -1.2884001 4291535310
-0.67818999 -0.39455 -1.2963001 4291535310
-0.67650998 -0.39511001 -1.2981 4291535310
-0.67567003 -0.39618999 -1.3017 4291535310
-0.67738998 -0.39886001 -1.3104 4291535310
-0.68632001 -0.40599999 -1.3339 4291535310
-0.67692 -0.41016001 -1.3476 4291535310
-0.67470998 -0.41046 -1.3485 4291535310
-0.67755002 -0.38824999 -1.28 4291535310
-0.67632997 -0.38907 -1.2826999 4291535310
-0.67771 -0.39144999 -1.2905 4291535310
-0.67818999 -0.39331999 -1.2967 4291535310
-0.67694002 -0.39412999 -1.2994 4291535310
-0.67653 -0.39548001 -1.3038 4291535310
-0.67782003 -0.39787 -1.3117 4291535310
-0.68418998 -0.40342 -1.33 4291535310
-0.73763001 -0.44549999 -1.4687001 4291535310
-0.68690997 -0.41521001 -1.3688999 4291535310
-0.72696 -0.44244999 -1.4586999 4291535310
-0.68006998 -0.38701001 -1.2802 4291535310
-0.67886001 -0.38782999 -1.2829 4291535310
-0.67938 -0.38969001 -1.2891001 4291535310
-0.67813998 -0.39050001 -1.2918 4291535310
-0.67818999 -0.39210001 -1.2970001 4291535310
-0.6778 -0.39344001 -1.3015 4291535310
-0.68678999 -0.40213001 -1.3302 4291535310
-0.68008 -0.40623 -1.3437999 4291535310
-0.67786998 -0.40652999 -1.3448 4291535310
-0.67918998 -0.38518 -1.2789 4291535310
-0.67842001 -0.38624999 -1.2825 4291535310
-0.67764002 -0.38732001 -1.286 4291535310
-0.67813998 -0.38916999 -1.2922 4291535310
-0.67905998 -0.39129001 -1.2992001 4291535310
-0.67737001 -0.39184001 -1.301 4291535310
-0.67523998 -0.39212999 -1.302 4291535310
-0.68124002 -0.39737001 -1.3194 4291535310
-0.68092 -0.40537 -1.346 4291535310
-0.67870998 -0.40566999 -1.3469 4291535310
-0.67875999 -0.38356 -1.2785 4291535310
-0.67842001 -0.38488001 -1.2829 4291535310
-0.67807001 -0.38620999 -1.2873 4291535310
-0.67944002 -0.38857001 -1.2952 4291535310
-0.67818999 -0.38938001 -1.2979 4291535310
-0.67737001 -0.39045 -1.3013999 4291535310
-0.67438 -0.39021999 -1.3006999 4291535310
-0.67953002 -0.39493001 -1.3164001 4291535310
-0.73786002 -0.43753001 -1.4584 4291535310
-0.72551 -0.43347001 -1.4448 4291535310
-0.67962998 -0.38282999 -1.2805001 4291535310
-0.67929 -0.38415 -1.285 4291535310
-0.68067998 -0.3865 -1.2927999 4291535310
-0.68031001 -0.38782999 -1.2973 4291535310
-0.67818999 -0.38812 -1.2982 4291535310
-0.67737001 -0.38918 -1.3018 4291535310
-0.68211001 -0.39361 -1.3166 4291535310
-0.68237001 -0.40022001 -1.3387001 4291535310
-0.67891002 -0.39974001 -1.3371 4291535310
-0.67743999 -0.38032001 -1.2766 4291535310
-0.67755002 -0.38190001 -1.2819 4291535310
-0.67851001 -0.38398999 -1.2889 4291535310
-0.67900997 -0.38582 -1.295 4291535310
-0.67818999 -0.38688001 -1.2986 4291535310
-0.6778 -0.38820001 -1.303 4291535310
-0.67567003 -0.38848999 -1.304 4291535310
-0.74106997 -0.42956001 -1.4419 4291535310
-0.78084999 -0.45734999 -1.5351 4291535310
-0.68110001 -0.39816999 -1.3365 4291535310
-0.67891002 -0.39846 -1.3375 4291535310
-0.67952001 -0.37876001 -1.276 4291535310
-0.67875999 -0.37981001 -1.2796 4291535310
-0.67667001 -0.38010001 -1.2805001 4291535310
-0.67851001 -0.38269001 -1.2893 4291535310
-0.67944002 -0.38477999 -1.2963001 4291535310
-0.67690003 -0.38481 -1.2964 4291535310
-0.67650998 -0.38611999 -1.3008 4291535310
-0.73593998 -0.42502999 -1.4319 4291535310
-0.73800999 -0.42978001 -1.4479001 4291535310
-0.73532999 -0.43171 -1.4543999 4291535310
-0.67908001 -0.37718999 -1.2755001 4291535310
-0.67918998 -0.37875 -1.2808 4291535310
-0.68059999 -0.38108 -1.2887 4291535310
-0.68111998 -0.3829 -1.2948999 4291535310
-0.67988002 -0.38370001 -1.2976 4291535310
-0.67602998 -0.38297001 -1.2951 4291535310
-0.67521 -0.38402 -1.2986 4291535310
-0.72799999 -0.41709 -1.4105 4291535310
-0.74704999 -0.43022999 -1.4549 4291535310
-0.68291003 -0.39333999 -1.3302 4291535310
-0.67988998 -0.39311999 -1.3293999 4291535310
-0.67644 -0.37437001 -1.2708 4291535310
-0.67569 -0.37542 -1.2743 4291535310
-0.67711002 -0.37774 -1.2822 4291535310
-0.67851001 -0.38005999 -1.2901 4291535310
-0.67900997 -0.38187999 -1.2962 4291535310
-0.67733002 -0.38242 -1.2981 4291535310
-0.67563999 -0.38295999 -1.2999001 4291535310
-0.71585 -0.41010001 -1.392 4291535310
-0.68673998 -0.39429 -1.3384 4291535310
-0.68456 -0.39458001 -1.3394001 4291535310
-0.676 -0.37283 -1.2703 4291535310
-0.67743999 -0.37514001 -1.2781 4291535310
-0.67842001 -0.37720001 -1.2852 4291535310
-0.67851001 -0.37875 -1.2904 4291535310
-0.67900997 -0.38056001 -1.2966 4291535310
-0.67862999 -0.38185999 -1.301 4291535310
-0.67650998 -0.38214999 -1.302 4291535310
-0.70731002 -0.40360001 -1.3751 4291535310
-0.70504999 -0.40389001 -1.3760999 4291535310
-0.72443002 -0.4172 -1.4214 4291535310
-0.67982 -0.37233001 -1.2731 4291535310
-0.67996001 -0.37388 -1.2783999 4291535310
-0.68006998 -0.37542999 -1.2837 4291535310
-0.68017 -0.37696999 -1.289 4291535310
-0.67980999 -0.37827 -1.2934 4291535310
-0.67856997 -0.37906 -1.2961 4291535310
-0.67862999 -0.38060999 -1.3013999 4291535310
-0.69068998 -0.39081001 -1.3363 4291535310
-0.70090002 -0.39846 -1.3624001 4291535310
-0.75147003 -0.43024999 -1.4711 4291535310
-0.67806 -0.37011999 -1.27 4291535310
-0.67688 -0.37090001 -1.2727 4291535310
-0.67787999 -0.37294999 -1.2797 4291535310
-0.67929 -0.37524 -1.2876 4291535310
-0.67938 -0.37678999 -1.2929 4291535310
-0.67900997 -0.37808001 -1.2973 4291535310
-0.67559999 -0.37760001 -1.2957 4291535310
-0.68807 -0.38958001 -1.3368 4291535310
-0.72931999 -0.41569 -1.4263999 4291535310
-0.67717999 -0.36831999 -1.2687 4291535310
-0.67732 -0.36985001 -1.2739 4291535310
-0.67875999 -0.37213999 -1.2818 4291535310
-0.67929 -0.37393001 -1.288 4291535310
-0.67764002 -0.37446001 -1.2898 4291535310
-0.67727 -0.37575001 -1.2943 4291535310
-0.67391998 -0.37681001 -1.2979 4291535310
-0.75147003 -0.42735001 -1.472 4291535310
-0.67982 -0.36848 -1.2742 4291535310
-0.67908001 -0.36950999 -1.2778 4291535310
-0.68094999 -0.37204 -1.2865 4291535310
-0.68017 -0.37307 -1.2901 4291535310
-0.67690003 -0.37566999 -1.2991 4291535310
-0.67761999 -0.36596 -1.2703 4291535310
-0.67908001 -0.36822999 -1.2782 4291535310
-0.68006998 -0.37024999 -1.2852 4291535310
-0.67929 -0.37128001 -1.2887 4291535310
-0.67776 -0.37487 -1.3012 4291535310
-0.67563999 -0.37515 -1.3022 4291535310
-0.76200998 -0.42877001 -1.4883 4291535310
-0.67878997 -0.36394 -1.2679 4291535310
-0.67894 -0.36544999 -1.2732 4291535310
-0.67820001 -0.36647999 -1.2768 4291535310
-0.67875999 -0.36824 -1.2829 4291535310
-0.67733002 -0.37334001 -1.3006999 4291535310
-0.67563999 -0.37386 -1.3025 4291535310
-0.76757002 -0.43054 -1.5 4291535310
-0.68084002 -0.36243999 -1.2673 4291535310
-0.68011999 -0.36346 -1.2709 4291535310
-0.67982 -0.36471999 -1.2753 4291535310
-0.68128002 -0.36697999 -1.2832 4291535310
-0.74129999 -0.41214001 -1.4411 4291535310
-0.67951 -0.36050001 -1.2651 4291535310
-0.67834997 -0.36127001 -1.2678 4291535310
-0.6785 -0.36276999 -1.2731 4291535310
-0.67644 -0.36305001 -1.274 4291535310
-0.73808002 -0.41058001 -1.4408 4291535310
-0.67746001 -0.35947001 -1.2664 4291535310
-0.67717999 -0.36072001 -1.2708 4291535310
-0.67644 -0.36173999 -1.2744 4291535310
-0.70389003 -0.38934001 -1.3717 4291535310
-0.67773002 -0.35687 -1.2624 4291535310
-0.67834997 -0.35861 -1.2685 4291535310
-0.67894 -0.36035001 -1.2747 4291535310
-0.67729002 -0.35534999 -1.2618999 4291535310
-0.67834997 -0.35732001 -1.2689 4291535310
-0.6785 -0.35881001 -1.2742 4291535310
-0.67864001 -0.3603 -1.2795 4291535310
-0.76328999 -0.42054999 -1.4934 4291535310
-0.67773002 -0.35433 -1.2631 4291535310
-0.67746001 -0.35556999 -1.2675 4291535310
-0.67761999 -0.35705 -1.2728 4291535310
-0.67776 -0.35854 -1.2781 4291535310
-0.76244003 -0.41857001 -1.4921 4291535310
-0.68022001 -0.35303 -1.2632999 4291535310
-0.68040001 -0.35451001 -1.2686 4291535310
-0.67922997 -0.35527 -1.2713 4291535310
-0.68027002 -0.35723001 -1.2783999 4291535310
-0.70398003 -0.38224 -1.3679 4291535310
-0.67708999 -0.35009 -1.2575999 4291535310
-0.68040001 -0.35324001 -1.2690001 4291535310
-0.67967999 -0.35424 -1.2725 4291535310
-0.68027002 -0.35595 -1.2787 4291535310
-0.67952001 -0.35695001 -1.2823 4291535310
-0.67754 -0.34906 -1.2589 4291535310
-0.67905998 -0.35124001 -1.2667 4291535310
-0.67746001 -0.35174999 -1.2686 4291535310
-0.6785 -0.35370001 -1.2756 4291535310
-0.67996001 -0.35589001 -1.2835 4291535310
-0.67957002 -0.34751001 -1.2582 4291535310
-0.67799002 -0.34801999 -1.2601 4291535310
-0.67951 -0.3502 -1.268 4291535310
-0.68055999 -0.35214001 -1.275 4291535310
-0.67664999 -0.34604001 -1.2578 4291535310
-0.67773002 -0.34797999 -1.2649 4291535310
-0.67922997 -0.35014999 -1.2727 4291535310
-0.77012998 -0.41538 -1.5099 4291535310
-0.67822999 -0.34428 -1.2563 4291535310
-0.67575002 -0.34430999 -1.2565 4291535310
-0.67817003 -0.34694999 -1.2661 4291535310
-0.67922997 -0.34887001 -1.2731 4291535310
-0.76159 -0.4091 -1.4929 4291535310
-0.68001997 -0.34399 -1.2601 4291535310
-0.67976999 -0.3452 -1.2646 4291535310
-0.67951 -0.34641999 -1.2690001 4291535310
-0.67922997 -0.34762999 -1.2733999 4291535310
-0.67957002 -0.34253001 -1.2596 4291535310
-0.67931998 -0.34373999 -1.2640001 4291535310
-0.67773002 -0.34424001 -1.2659 4291535310
-0.67878997 -0.34615001 -1.2729 4291535310
-0.67733002 -0.34009001 -1.2556 4291535310
-0.67799002 -0.34175 -1.2618001 4291535310
-0.67773002 -0.34294999 -1.2661999 4291535310
-0.67834997 -0.34463 -1.2724 4291535310
-0.74773997 -0.39539 -1.4598 4291535310
-0.67979997 -0.33877 -1.2559 4291535310
-0.67957002 -0.33996001 -1.2603 4291535310
-0.67931998 -0.34116 -1.2647001 4291535310
-0.67817003 -0.34189001 -1.2674 4291535310
-0.67822999 -0.33805001 -1.258 4291535310
-0.67887998 -0.33970001 -1.2642 4291535310
-0.67729002 -0.34020001 -1.266 4291535310
-0.67800999 -0.33543 -1.2531 4291535310
-0.67868 -0.33708 -1.2592 4291535310
-0.67931998 -0.33873001 -1.2654001 4291535310
-0.67905998 -0.33992001 -1.2697999 4291535310
-0.67979997 -0.3351 -1.2569 4291535310
-0.68001997 -0.33651 -1.2622 4291535310
-0.68155998 -0.33860999 -1.2701 4291535310
-0.67844999 -0.33311999 -1.2546 4291535310
-0.67912 -0.33476001 -1.2608 4291535310
-0.68022001 -0.33662 -1.2678 4291535310
-0.67821997 -0.33046001 -1.2496001 4291535310
-0.67844999 -0.33186001 -1.2549 4291535310
-0.68046999 -0.33417001 -1.2637 4291535310
-0.67887998 -0.33465999 -1.2654999 4291535310
-0.67866999 -0.32944 -1.2508 4291535310
-0.68024999 -0.33151001 -1.2587 4291535310
-0.68136001 -0.33337 -1.2658 4291535310
-0.68022001 -0.33408001 -1.2685 4291535310
-0.75923997 -0.38661 -1.4679 4291535310
-0.67777002 -0.32775 -1.2494 4291535310
-0.67844999 -0.32936999 -1.2556 4291535310
-0.67777997 -0.33030999 -1.2592 4291535310
-0.67799002 -0.3317 -1.2645 4291535310
-0.71327001 -0.36094001 -1.3759 4291535310
-0.67821997 -0.32675999 -1.2506 4291535310
-0.67800999 -0.32791999 -1.255 4291535310
-0.67912 -0.32975999 -1.2621 4291535310
-0.67843002 -0.33069 -1.2657 4291535310
-0.70372999 -0.35457999 -1.3571 4291535310
-0.67887002 -0.32459 -1.2474 4291535310
-0.68001997 -0.32642001 -1.2544 4291535310
-0.67979997 -0.32758 -1.2588 4291535310
-0.68136001 -0.32962999 -1.2667 4291535310
-0.67840999 -0.32312 -1.2467999 4291535310
-0.67912 -0.32472 -1.253 4291535310
-0.6789 -0.32587001 -1.2574 4291535310
-0.67868 -0.32701999 -1.2618999 4291535310
-0.67887998 -0.32839999 -1.2672 4291535310
-0.67887002 -0.32205999 -1.248 4291535310
-0.67912 -0.32343 -1.2533 4291535310
-0.6789 -0.32458001 -1.2578 4291535310
-0.67777997 -0.32528001 -1.2605 4291535310
-0.67843002 -0.32686999 -1.2667 4291535310
-0.67951 -0.31985 -1.2448 4291535310
-0.67887002 -0.32076001 -1.2484 4291535310
-0.68001997 -0.32257 -1.2553999 4291535310
-0.6807 -0.32416001 -1.2616 4291535310
-0.68001997 -0.32508001 -1.2651 4291535310
-0.67751002 -0.31887001 -1.2460999 4291535310
-0.67732 -0.31999999 -1.2505 4291535310
-0.67979997 -0.32247001 -1.2601 4291535310
-0.68046999 -0.32405001 -1.2663 4291535310
-0.78819001 -0.38964999 -1.5227 4291535310
-0.67587 -0.31564 -1.2385 4291535310
-0.67659998 -0.31720999 -1.2447 4291535310
-0.67596 -0.31812 -1.2482001 4291535310
-0.67800999 -0.32034999 -1.257 4291535310
-0.67868 -0.32192999 -1.2632 4291535310
-0.78992999 -0.38905001 -1.5266 4291535310
-0.67922002 -0.31478 -1.2404 4291535310
-0.67996001 -0.31635001 -1.2466 4291535310
-0.67931998 -0.31726 -1.2502 4291535310
-0.68046999 -0.31904 -1.2572 4291535310
-0.68159997 -0.32082999 -1.2643 4291535310
-0.67957002 -0.32108 -1.2652 4291535310
-0.67905003 -0.31461999 -1.2452 4291535310
-0.67931998 -0.31595999 -1.2505 4291535310
-0.67912 -0.31707999 -1.2549 4291535310
-0.67822999 -0.31911001 -1.263 4291535310
-0.74918997 -0.36379999 -1.4398 4291535310
-0.67694002 -0.31119001 -1.2367001 4291535310
-0.67813998 -0.31296 -1.2438 4291535310
-0.67840999 -0.3143 -1.2491 4291535310
-0.67866999 -0.31562999 -1.2544 4291535310
-0.67844999 -0.31674999 -1.2588 4291535310
-0.67868 -0.31808999 -1.2642 4291535310
-0.74962002 -0.36261001 -1.4411 4291535310
-0.67984003 -0.31018999 -1.2378 4291535310
-0.68013 -0.31151 -1.2431 4291535310
-0.67951 -0.31241 -1.2467 4291535310
-0.67887002 -0.31331 -1.2502 4291535310
-0.68046999 -0.31529 -1.2582 4291535310
-0.67979997 -0.31619 -1.2617 4291535310
-0.67877001 -0.30963999 -1.2408 4291535310
-0.67813998 -0.31053001 -1.2444 4291535310
-0.67795998 -0.31163999 -1.2488 4291535310
-0.67912 -0.3134 -1.2559 4291535310
-0.67935002 -0.31472 -1.2612 4291535310
-0.67912 -0.31584001 -1.2656 4291535310
-0.67877001 -0.30840001 -1.2411 4291535310
-0.67860001 -0.30950001 -1.2456 4291535310
-0.67840999 -0.31061 -1.25 4291535310
-0.67957002 -0.31235999 -1.257 4291535310
-0.67844999 -0.31303 -1.2598 4291535310
-0.67822999 -0.31413999 -1.2642 4291535310
-0.68523997 -0.3238 -1.3031 4291535310
-0.75590998 -0.36002001 -1.4489 4291535310
-0.67938 -0.30625999 -1.2378 4291535310
-0.68103999 -0.30820999 -1.2457 4291535310
-0.67996001 -0.30889001 -1.2485 4291535310
-0.67976999 -0.30998999 -1.2529 4291535310
-0.68092 -0.31173 -1.26 4291535310
-0.68024999 -0.31262001 -1.2635 4291535310
-0.67777997 -0.31265 -1.2637 4291535310
-0.76354998 -0.36087 -1.4586 4291535310
-0.67967999 -0.30631 -1.2435 4291535310
-0.67951 -0.30741 -1.2479 4291535310
-0.67795998 -0.30787 -1.2498 4291535310
-0.67777002 -0.30895999 -1.2542 4291535310
-0.6789 -0.3107 -1.2613 4291535310
-0.67688 -0.31094 -1.2622 4291535310
-0.67486 -0.31118 -1.2632 4291535310
-0.76591998 -0.35912001 -1.4578 4291535310
-0.76354998 -0.3594 -1.4589 4291535310
-0.67800999 -0.30314001 -1.2359 4291535310
-0.67877001 -0.30465001 -1.242 4291535310
-0.67905003 -0.30596 -1.2473 4291535310
-0.67976999 -0.30746999 -1.2535 4291535310
-0.67821997 -0.30792999 -1.2553999 4291535310
-0.67755997 -0.30881 -1.2589999 4291535310
-0.67644 -0.30947 -1.2617 4291535310
-0.67486 -0.30993 -1.2635 4291535310
-0.69995999 -0.32317999 -1.3176 4291535310
-0.67952001 -0.30147001 -1.2343 4291535310
-0.68028998 -0.30298001 -1.2405 4291535310
-0.67877001 -0.30342999 -1.2423 4291535310
-0.67813998 -0.30430001 -1.2459 4291535310
-0.68112999 -0.30687001 -1.2564 4291535310
-0.67912 -0.30711001 -1.2574 4291535310
-0.67666 -0.30713999 -1.2575001 4291535310
-0.67644 -0.30823001 -1.262 4291535310
-0.67860001 -0.29980999 -1.2329 4291535310
-0.67755002 -0.30046999 -1.2356 4291535310
-0.67785001 -0.30175999 -1.2409 4291535310
-0.67724001 -0.30263001 -1.2445 4291535310
-0.68067998 -0.30540001 -1.2559 4291535310
-0.67866999 -0.30564001 -1.2569 4291535310
-0.67711002 -0.30609 -1.2587 4291535310
-0.67509001 -0.30633 -1.2596999 4291535310
-0.70921999 -0.32369 -1.3311 4291535310
-0.71152002 -0.32606 -1.3408 4291535310
-0.70936 -0.32631999 -1.3419 4291535310
-0.67813998 -0.29835001 -1.2323 4291535310
-0.67708999 -0.29901001 -1.235 4291535310
-0.67785001 -0.30050001 -1.2412 4291535310
-0.67951 -0.30241999 -1.2491 4291535310
-0.67795998 -0.30287001 -1.251 4291535310
-0.67866999 -0.30436999 -1.2572 4291535310
-0.69002998 -0.31329 -1.294 4291535310
-0.70885998 -0.32343999 -1.336 4291535310
-0.69916999 -0.32010001 -1.3221999 4291535310
-0.77078003 -0.35561001 -1.4687999 4291535310
-0.67873001 -0.29624 -1.2291 4291535310
-0.67860001 -0.29730999 -1.2335 4291535310
-0.67984003 -0.29901001 -1.2405 4291535310
-0.68013 -0.30028999 -1.2458 4291535310
-0.68041003 -0.30157 -1.2512 4291535310
-0.67931998 -0.30223 -1.2539001 4291535310
-0.67821997 -0.30287999 -1.2566 4291535310
-0.71686 -0.32587001 -1.352 4291535310
-0.67905998 -0.29627001 -1.2347 4291535310
-0.67800999 -0.29692 -1.2374001 4291535310
-0.67739999 -0.29778001 -1.2410001 4291535310
-0.68041003 -0.30030999 -1.2515 4291535310
-0.67887002 -0.30074999 -1.2533 4291535310
-0.67732 -0.3012 -1.2552 4291535310
-0.67666 -0.30206001 -1.2588 4291535310
-0.70375001 -0.31584999 -1.3163 4291535310
-0.70609999 -0.31819001 -1.326 4291535310
-0.70396 -0.31843999 -1.327 4291535310
-0.67905998 -0.29506001 -1.2349 4291535310
-0.67938 -0.29633 -1.2403001 4291535310
-0.67830998 -0.29697999 -1.243 4291535310
-0.67813998 -0.29804 -1.2474 4291535310
-0.67840999 -0.29931 -1.2528 4291535310
-0.67685997 -0.29975 -1.2546 4291535310
-0.67440999 -0.29978001 -1.2546999 4291535310
-0.69493997 -0.31169 -1.3045 4291535310
-0.69507003 -0.31297001 -1.3099 4291535310
-0.77803999 -0.35321 -1.4783 4291535310
-0.67965001 -0.29300001 -1.2316999 4291535310
-0.67997998 -0.29426 -1.237 4291535310
-0.68075001 -0.29572999 -1.2431 4291535310
-0.68013 -0.29659 -1.2467 4291535310
-0.67996001 -0.29765001 -1.2512 4291535310
-0.67840999 -0.29809001 -1.253 4291535310
-0.69643003 -0.30869001 -1.2976 4291535310
-0.69435 -0.30893001 -1.2986 4291535310
-0.69226003 -0.30917001 -1.2996 4291535310
-0.67813998 -0.29223001 -1.2338001 4291535310
-0.67984003 -0.29409999 -1.2417001 4291535310
-0.67922002 -0.29495001 -1.2453001 4291535310
-0.67813998 -0.29559001 -1.248 4291535310
-0.67751002 -0.29644001 -1.2516 4291535310
-0.68779999 -0.30583 -1.2912 4291535310
-0.77956003 -0.34962001 -1.4761 4291535310
-0.67689002 -0.28935 -1.227 4291535310
-0.67860001 -0.29121 -1.2349 4291535310
-0.67846 -0.29225999 -1.2394 4291535310
-0.67877001 -0.29352 -1.2447 4291535310
-0.67769003 -0.29416001 -1.2474 4291535310
-0.67751002 -0.29521 -1.2519 4291535310
-0.67883998 -0.2879 -1.2263 4291535310
-0.67918998 -0.28913999 -1.2316999 4291535310
-0.67905998 -0.29019001 -1.2361 4291535310
-0.67755002 -0.29062 -1.238 4291535310
-0.68013 -0.29289001 -1.2476 4291535310
-0.67905003 -0.29352999 -1.2503 4291535310
-0.67838001 -0.28647 -1.2258 4291535310
-0.67873001 -0.28771001 -1.2311 4291535310
-0.67769003 -0.28834 -1.2338001 4291535310
-0.67663997 -0.28898001 -1.2365 4291535310
-0.67877001 -0.29102999 -1.2453001 4291535310
-0.67860001 -0.29207 -1.2498 4291535310
-0.67840999 -0.29312 -1.2542 4291535310
-0.67826998 -0.28626999 -1.2305 4291535310
-0.67676997 -0.28670001 -1.2323999 4291535310
-0.67755002 -0.28814 -1.2385 4291535310
-0.67785001 -0.28937 -1.2438999 4291535310
-0.67724001 -0.29021001 -1.2474 4291535310
-0.67659998 -0.29104 -1.251 4291535310
-0.67838001 -0.28399 -1.2263 4291535310
-0.67873001 -0.28522 -1.2316999 4291535310
-0.67905998 -0.28645 -1.237 4291535310
-0.67922002 -0.28872001 -1.2467999 4291535310
-0.67724001 -0.28894001 -1.2477 4291535310
-0.67790997 -0.28257 -1.2258 4291535310
-0.68010998 -0.28459001 -1.2345001 4291535310
-0.67905998 -0.28522 -1.2373 4291535310
-0.67800999 -0.28584999 -1.24 4291535310
-0.67785001 -0.28687999 -1.2444 4291535310
-0.67677999 -0.28749999 -1.2472 4291535310
-0.67570001 -0.28812999 -1.2499 4291535310
-0.67461002 -0.28876001 -1.2526 4291535310
-0.67662001 -0.27974999 -1.219 4291535310
-0.67790997 -0.28136 -1.226 4291535310
-0.67965001 -0.28318 -1.234 4291535310
-0.67860001 -0.28380001 -1.2367001 4291535310
-0.67755002 -0.28443 -1.2394 4291535310
-0.67649001 -0.28505 -1.2421 4291535310
-0.67587 -0.28586999 -1.2457 4291535310
-0.67434001 -0.2863 -1.2476 4291535310
-0.67505997 -0.28771999 -1.2538 4291535310
-0.67995 -0.27889001 -1.2209001 4291535310
-0.68032002 -0.28009999 -1.2262 4291535310
-0.67883998 -0.28051999 -1.2280999 4291535310
-0.68057001 -0.28233001 -1.2359999 4291535310
-0.68134999 -0.28375 -1.2422 4291535310
-0.67938 -0.28397 -1.2431 4291535310
-0.67769003 -0.28542 -1.2495 4291535310
-0.67659998 -0.28604001 -1.2522 4291535310
-0.67855 -0.27706 -1.2186 4291535310
-0.67892998 -0.27827001 -1.2239 4291535310
-0.67745 -0.27869001 -1.2257 4291535310
-0.67873001 -0.28029001 -1.2328 4291535310
-0.67860001 -0.28130999 -1.2372 4291535310
-0.67739999 -0.28294 -1.2444 4291535310
-0.67587 -0.28336 -1.2463 4291535310
-0.67615002 -0.28457001 -1.2516 4291535310
-0.67847002 -0.27684999 -1.2233 4291535310
-0.67790997 -0.27766001 -1.2269 4291535310
-0.67826998 -0.27886 -1.2322 4291535310
-0.67860001 -0.28005999 -1.2375 4291535310
-0.67755002 -0.28068 -1.2402 4291535310
-0.67694002 -0.28149 -1.2438 4291535310
-0.67541999 -0.28191 -1.2457 4291535310
-0.67524999 -0.28292 -1.2502 4291535310
-0.68133998 -0.27579001 -1.2243 4291535310
-0.68124998 -0.27678999 -1.2288001 4291535310
-0.67975998 -0.27721 -1.2306 4291535310
-0.68102998 -0.27880001 -1.2377 4291535310
-0.68044001 -0.27961001 -1.2413 4291535310
-0.67846 -0.27983001 -1.2423 4291535310
-0.67739999 -0.28044999 -1.245 4291535310
-0.67724001 -0.28145 -1.2495 4291535310
-0.67901999 -0.27360001 -1.2203 4291535310
-0.67986 -0.27498001 -1.2264 4291535310
-0.67975998 -0.27598 -1.2309 4291535310
-0.67918998 -0.27678001 -1.2345001 4291535310
-0.67997998 -0.27816999 -1.2407 4291535310
-0.67800999 -0.2784 -1.2417001 4291535310
-0.67694002 -0.27901 -1.2444 4291535310
-0.67541999 -0.27941999 -1.2463 4291535310
-0.67861998 -0.27118999 -1.2151999 4291535310
-0.67901999 -0.27237999 -1.2205 4291535310
-0.67892998 -0.27337 -1.225 4291535310
-0.67930001 -0.27456 -1.2302999 4291535310
-0.67873001 -0.27535999 -1.2339 4291535310
-0.67860001 -0.27634999 -1.2384 4291535310
-0.67755002 -0.27695999 -1.2411 4291535310
-0.67602998 -0.27737001 -1.2429 4291535310
-0.67587 -0.27836999 -1.2474 4291535310
-0.7033 -0.29122001 -1.3049999 4291535310
-0.67908001 -0.27017 -1.2164 4291535310
-0.68041003 -0.27173001 -1.2234 4291535310
-0.68032002 -0.27272001 -1.2279 4291535310
-0.67975998 -0.27351999 -1.2314 4291535310
-0.68102998 -0.27509001 -1.2385 4291535310
-0.67997998 -0.27568999 -1.2412 4291535310
-0.67846 -0.27610999 -1.2431 4291535310
-0.67785001 -0.27689999 -1.2467 4291535310
-0.67769003 -0.26837999 -1.214 4291535310
-0.67948002 -0.27013001 -1.2219 4291535310
-0.67847002 -0.27072999 -1.2247 4291535310
-0.67930001 -0.2721 -1.2309 4291535310
-0.67918998 -0.27307999 -1.2352999 4291535310
-0.67952001 -0.27426001 -1.2406 4291535310
-0.67755002 -0.27447999 -1.2416 4291535310
-0.67694002 -0.27526999 -1.2452 4291535310
-0.67815 -0.26734 -1.2151999 4291535310
-0.67855 -0.26851001 -1.2205 4291535310
-0.67847002 -0.26949 -1.2249 4291535310
-0.67838001 -0.27046999 -1.2294 4291535310
-0.67781001 -0.27125999 -1.233 4291535310
-0.67769003 -0.27224001 -1.2374001 4291535310
-0.67663997 -0.27283999 -1.2402 4291535310
-0.67961001 -0.26571 -1.2136 4291535310
-0.68001997 -0.26686999 -1.2189 4291535310
-0.68088001 -0.26822001 -1.2251 4291535310
-0.68032002 -0.26901001 -1.2287 4291535310
-0.67975998 -0.26980001 -1.2323 4291535310
-0.67873001 -0.27039 -1.235 4291535310
-0.67813998 -0.27118 -1.2386 4291535310
-0.67663997 -0.27158999 -1.2404 4291535310
-0.67866999 -0.26414001 -1.2121 4291535310
-0.67861998 -0.2651 -1.2165999 4291535310
-0.67948002 -0.26644999 -1.2228 4291535310
-0.67940003 -0.26741999 -1.2272 4291535310
-0.67930001 -0.26839 -1.2316999 4291535310
-0.67918998 -0.26936999 -1.2361 4291535310
-0.67813998 -0.26995999 -1.2388999 4291535310
-0.67571998 -0.26999 -1.239 4291535310
-0.67558002 -0.27096 -1.2434 4291535310
-0.67866999 -0.26295 -1.2124 4291535310
-0.67908001 -0.26411 -1.2177 4291535310
-0.67901999 -0.26506999 -1.2221 4291535310
-0.67847002 -0.26585001 -1.2257 4291535310
-0.67838001 -0.26682001 -1.2302001 4291535310
-0.67873001 -0.26797 -1.2355 4291535310
-0.67813998 -0.26875001 -1.2391 4291535310
-0.67618001 -0.26897001 -1.2401 4291535310
-0.67602998 -0.26993999 -1.2446001 4291535310
-0.70493001 -0.28299001 -1.3048 4291535310
-0.67866999 -0.26172999 -1.2126 4291535310
-0.68001997 -0.26324999 -1.2197 4291535310
-0.68041003 -0.26440001 -1.225 4291535310
-0.67986 -0.26517001 -1.2286 4291535310
-0.67883998 -0.26576 -1.2313 4291535310
-0.67734998 -0.26616001 -1.2332 4291535310
-0.67676997 -0.26694 -1.2368 4291535310
-0.67708999 -0.26809001 -1.2421 4291535310
-0.67866999 -0.26049 -1.2129 4291535310
-0.68001997 -0.26199999 -1.22 4291535310
-0.68088001 -0.26333001 -1.2261 4291535310
-0.67892998 -0.26354 -1.2271 4291535310
-0.67838001 -0.26431 -1.2307 4291535310
-0.67642999 -0.26453 -1.2316999 4291535310
-0.67584997 -0.26530001 -1.2352999 4291535310
-0.67526001 -0.26607001 -1.2388999 4291535310
-0.67820001 -0.25907999 -1.2122999 4291535310
-0.68094999 -0.26113999 -1.222 4291535310
-0.68041003 -0.26190999 -1.2255 4291535310
-0.67847002 -0.26212001 -1.2265 4291535310
-0.67838001 -0.26306999 -1.2309999 4291535310
-0.67781001 -0.26383999 -1.2345999 4291535310
-0.67723 -0.26460999 -1.2381999 4291535310
-0.67708999 -0.26557001 -1.2427 4291535310
-0.68011999 -0.25766 -1.2115999 4291535310
-0.68054003 -0.25878999 -1.2169 4291535310
-0.68234998 -0.26047 -1.2248 4291535310
-0.68041003 -0.26067999 -1.2258 4291535310
-0.67892998 -0.26108 -1.2277 4291535310
-0.67930001 -0.26221001 -1.233 4291535310
-0.67873001 -0.26298001 -1.2366 4291535310
-0.67769003 -0.26356 -1.2393 4291535310
-0.67846 -0.26488 -1.2455 4291535310
-0.67913997 -0.25703999 -1.2146 4291535310
-0.67908001 -0.25799 -1.219 4291535310
-0.67995 -0.25929999 -1.2252001 4291535310
-0.67940003 -0.26006001 -1.2288001 4291535310
-0.67930001 -0.26100001 -1.2333 4291535310
-0.67734998 -0.26120999 -1.2342 4291535310
-0.67539001 -0.26142001 -1.2352 4291535310
-0.67663997 -0.26291999 -1.2423 4291535310
-0.67824 -0.25455999 -1.2086 4291535310
-0.67773002 -0.25532001 -1.2122 4291535310
-0.67908001 -0.2568 -1.2193 4291535310
-0.67808998 -0.25737 -1.222 4291535310
-0.67707998 -0.25795001 -1.2247 4291535310
-0.67790997 -0.25924999 -1.2309 4291535310
-0.67781001 -0.26019001 -1.2354 4291535310
-0.67723 -0.26095 -1.239 4291535310
-0.67755002 -0.26208001 -1.2443 4291535310
-0.68011999 -0.25409001 -1.2122999 4291535310
-0.68006998 -0.25501999 -1.2168 4291535310
-0.68001997 -0.25595 -1.2212 4291535310
-0.67855 -0.25634 -1.2230999 4291535310
-0.67615002 -0.25637001 -1.2232 4291535310
-0.67606997 -0.25729999 -1.2277 4291535310
-0.67965001 -0.2597 -1.2391 4291535310
-0.67997998 -0.26082 -1.2444 4291535310
-0.67682999 -0.25161001 -1.2065001 4291535310
-0.67866999 -0.25325999 -1.2144001 4291535310
-0.67861998 -0.25419 -1.2189 4291535310
-0.67761999 -0.25476 -1.2216001 4291535310
-0.67523003 -0.25477999 -1.2218 4291535310
-0.67561001 -0.2559 -1.2271 4291535310
-0.67597002 -0.25701001 -1.2323999 4291535310
-0.67723 -0.25848001 -1.2395 4291535310
-0.67919999 -0.25037 -1.2067 4291535310
-0.67824 -0.25093001 -1.2094001 4291535310
-0.67773002 -0.25167999 -1.2130001 4291535310
-0.67769003 -0.25260001 -1.2174 4291535310
-0.67761999 -0.25353 -1.2219 4291535310
-0.67615002 -0.25391001 -1.2237 4291535310
-0.67514002 -0.25448 -1.2265 4291535310
-0.67550999 -0.25558001 -1.2318 4291535310
-0.67676997 -0.25705001 -1.2388999 4291535310
-0.68014997 -0.24950001 -1.2086 4291535310
-0.68106002 -0.25077999 -1.2148 4291535310
-0.68006998 -0.25134 -1.2176 4291535310
-0.68142003 -0.25279999 -1.2246 4291535310
-0.67948002 -0.25299999 -1.2256 4291535310
-0.67754 -0.25321001 -1.2266001 4291535310
-0.67698997 -0.25395 -1.2302001 4291535310
-0.67873001 -0.25558999 -1.2381001 4291535310
-0.67826003 -0.24761 -1.2054 4291535310
-0.67824 -0.24853 -1.2099 4291535310
-0.67913997 -0.2498 -1.2161 4291535310
-0.67861998 -0.25053999 -1.2197 4291535310
-0.67623001 -0.25055999 -1.2198 4291535310
-0.67523003 -0.25112 -1.2225 4291535310
-0.67514002 -0.25204 -1.227 4291535310
-0.67505002 -0.25295001 -1.2314 4291535310
-0.67826003 -0.24645001 -1.2057 4291535310
-0.67824 -0.24736001 -1.2101001 4291535310
-0.67961001 -0.24880999 -1.2172 4291535310
-0.67815 -0.24919 -1.219 4291535310
-0.67623001 -0.24939001 -1.22 4291535310
-0.67430001 -0.24958999 -1.221 4291535310
-0.67561001 -0.25104001 -1.2280999 4291535310
-0.67550999 -0.25195 -1.2325 4291535310
-0.70383 -0.26390001 -1.291 4291535310
-0.68015999 -0.24508999 -1.2049 4291535310
-0.68062001 -0.24617 -1.2102 4291535310
-0.67965001 -0.24673 -1.2130001 4291535310
-0.67961001 -0.24763 -1.2174 4291535310
-0.67721999 -0.24766 -1.2175 4291535310
-0.67575997 -0.24804001 -1.2194 4291535310
-0.67838001 -0.25091001 -1.2335 4291535310
-0.69805998 -0.25942999 -1.2754 4291535310
-0.67826998 -0.24323 -1.2017 4291535310
-0.67873001 -0.24431001 -1.207 4291535310
-0.67777002 -0.24485999 -1.2097 4291535310
-0.67773002 -0.24575999 -1.2142 4291535310
-0.67675 -0.24631 -1.2169 4291535310
-0.6753 -0.24669001 -1.2187999 4291535310
-0.67561001 -0.24867 -1.2286 4291535310
-0.67826998 -0.24198 -1.2019 4291535310
-0.67873001 -0.24304999 -1.2072999 4291535310
-0.67824 -0.24377 -1.2108001 4291535310
-0.67773002 -0.24449 -1.2144001 4291535310
-0.67721999 -0.24522001 -1.2180001 4291535310
-0.68111002 -0.24081001 -1.2029001 4291535310
-0.68015999 -0.24135999 -1.2057 4291535310
-0.68014997 -0.24225 -1.2101001 4291535310
-0.67918003 -0.24279 -1.2128 4291535310
-0.67727 -0.24299 -1.2138 4291535310
-0.67721999 -0.24389 -1.2183 4291535310
-0.67575997 -0.24426 -1.2201999 4291535310
-0.67615002 -0.24533001 -1.2255 4291535310
-0.67969 -0.23907 -1.2006 4291535310
-0.67922002 -0.23977999 -1.2042 4291535310
-0.67967999 -0.24084 -1.2095 4291535310
-0.67824 -0.24121 -1.2114 4291535310
-0.67773002 -0.24192999 -1.215 4291535310
-0.67628998 -0.2423 -1.2168 4291535310
-0.67436999 -0.24250001 -1.2178 4291535310
-0.67337 -0.24304 -1.2205 4291535310
-0.71139997 -0.25920999 -1.3017 4291535310
-0.67826998 -0.23737 -1.1982 4291535310
-0.67826998 -0.23825 -1.2027 4291535310
-0.67732 -0.23879001 -1.2054 4291535310
-0.67918003 -0.24036001 -1.2133 4291535310
-0.67773002 -0.24073 -1.2151999 4291535310
-0.67628998 -0.2411 -1.2171 4291535310
-0.67436999 -0.24129 -1.2180001 4291535310
-0.67337 -0.24183001 -1.2208 4291535310
-0.68015999 -0.23686001 -1.2019 4291535310
-0.67826998 -0.23705 -1.2029001 4291535310
-0.67967999 -0.23844001 -1.21 4291535310
-0.68006998 -0.24037001 -1.2198 4291535310
-0.67769003 -0.2404 -1.2199 4291535310
-0.68014997 -0.23478 -1.1977 4291535310
-0.67921001 -0.23532 -1.2004 4291535310
-0.67826998 -0.23585001 -1.2032 4291535310
-0.68062001 -0.23757 -1.2119 4291535310
-0.67729998 -0.23726 -1.2103 4291535310
-0.67628998 -0.23867001 -1.2175 4291535310
-0.71301001 -0.25494999 -1.3006001 4291535310
-0.67778999 -0.23359001 -1.1981 4291535310
-0.6778 -0.23446 -1.2025 4291535310
-0.68014997 -0.23616999 -1.2113 4291535310
-0.67824 -0.23637 -1.2122999 4291535310
-0.67632997 -0.23656 -1.2133 4291535310
-0.67581999 -0.23726 -1.2169 4291535310
-0.72131997 -0.25668001 -1.3164999 4291535310
-0.68062001 -0.2325 -1.199 4291535310
-0.68015999 -0.2332 -1.2026 4291535310
-0.68204999 -0.23473001 -1.2106 4291535310
-0.68062001 -0.2351 -1.2124 4291535310
-0.67870998 -0.23529001 -1.2134 4291535310
-0.67727 -0.23565 -1.2153 4291535310
-0.67919999 -0.23075999 -1.1967 4291535310
-0.67921001 -0.23162 -1.2011 4291535310
-0.67874002 -0.23231 -1.2047 4291535310
-0.67873001 -0.23317 -1.2092 4291535310
-0.67777002 -0.23370001 -1.2119 4291535310
-0.67680001 -0.23423 -1.2147 4291535310
-0.67628998 -0.23492 -1.2183 4291535310
-0.67966998 -0.22969 -1.1978 4291535310
-0.67921001 -0.23037 -1.2014 4291535310
-0.67969 -0.23139 -1.2067 4291535310
-0.67967999 -0.23225001 -1.2112 4291535310
-0.67777002 -0.23243999 -1.2122 4291535310
-0.67680001 -0.23297 -1.2149 4291535310
-0.68059999 -0.22799 -1.1953 4291535310
-0.68204999 -0.22934 -1.2023 4291535310
-0.68063998 -0.22969 -1.2042 4291535310
-0.68015999 -0.23038 -1.2078 4291535310
-0.67826003 -0.23057 -1.2088 4291535310
-0.67965001 -0.23192 -1.2158999 4291535310
-0.68008 -0.22583 -1.1902 4291535310
-0.68107998 -0.227 -1.1964 4291535310
-0.68252999 -0.22834 -1.2034 4291535310
-0.68015999 -0.22837 -1.2036 4291535310
-0.67874002 -0.22871999 -1.2054 4291535310
-0.67778999 -0.22924 -1.2082 4291535310
-0.67870998 -0.23040999 -1.2144001 4291535310
-0.68055999 -0.22483 -1.1913 4291535310
-0.67869002 -0.22502001 -1.1923 4291535310
-0.67872 -0.22586 -1.1967 4291535310
-0.67921001 -0.22686 -1.2021 4291535310
-0.67969 -0.22787 -1.2074 4291535310
-0.67824 -0.22905999 -1.2137001 4291535310
-0.69839001 -0.23966999 -1.2699 4291535310
-0.68103999 -0.22381 -1.1924 4291535310
-0.68059999 -0.22449 -1.196 4291535310
-0.68014997 -0.22516 -1.1996 4291535310
-0.67969 -0.22584 -1.2031 4291535310
-0.67922002 -0.22651 -1.2067 4291535310
-0.67778999 -0.22686 -1.2086 4291535310
-0.67824 -0.22786 -1.2139 4291535310
-0.67864001 -0.22183 -1.1883 4291535310
-0.67869002 -0.22266001 -1.1927 4291535310
-0.67919999 -0.22366001 -1.198 4291535310
-0.67874002 -0.22432999 -1.2016 4291535310
-0.6778 -0.22484 -1.2043999 4291535310
-0.67732 -0.22551 -1.2079999 4291535310
-0.67777002 -0.2265 -1.2133 4291535310
-0.67540002 -0.22653 -1.2134 4291535310
-0.68049997 -0.22047 -1.1875 4291535310
-0.67912 -0.22081999 -1.1894 4291535310
-0.67869002 -0.22149 -1.1928999 4291535310
-0.67872 -0.22231001 -1.1974 4291535310
-0.67874002 -0.22314 -1.2019 4291535310
-0.6778 -0.22364999 -1.2046 4291535310
-0.67732 -0.22431999 -1.2082 4291535310
-0.67540002 -0.22533 -1.2136 4291535310
-0.68049997 -0.21928 -1.1877 4291535310
-0.68008 -0.21994001 -1.1913 4291535310
-0.68059999 -0.22092 -1.1966 4291535310
-0.68014997 -0.22159 -1.2002 4291535310
-0.67969 -0.22225 -1.2038 4291535310
-0.67874002 -0.22276001 -1.2065001 4291535310
-0.67953998 -0.21776 -1.1862 4291535310
-0.67864001 -0.21826001 -1.1889 4291535310
-0.67725998 -0.2186 -1.1908 4291535310
-0.68015999 -0.22119001 -1.2049 4291535310
-0.67922002 -0.22169 -1.2076 4291535310
-0.67919999 -0.22251 -1.2121 4291535310
-0.68049997 -0.21690001 -1.1881 4291535310
-0.6796 -0.21739 -1.1909 4291535310
-0.67917001 -0.21805 -1.1945 4291535310
-0.68110001 -0.21950001 -1.2024 4291535310
-0.68111002 -0.22031 -1.2069 4291535310
-0.68092 -0.21506999 -1.1848 4291535310
-0.68049997 -0.21572 -1.1884 4291535310
-0.67912 -0.21606 -1.1902 4291535310
-0.68059999 -0.21734001 -1.1973 4291535310
-0.67953998 -0.21416999 -1.1869 4291535310
-0.68055999 -0.21529 -1.193 4291535310
-0.68107998 -0.21625 -1.1984 4291535310
-0.68001997 -0.21306001 -1.188 4291535310
-0.6796 -0.21371 -1.1914999 4291535310
-0.68011999 -0.21466 -1.1969 4291535310
-0.68146998 -0.21238001 -1.1907001 4291535310
-0.68055999 -0.21287 -1.1935 4291535310
-0.68059999 -0.21366 -1.1979001 4291535310
-0.67995 -0.21001001 -1.1839 4291535310
-0.68001997 -0.21080001 -1.1884 4291535310
-0.67912 -0.21128 -1.1911 4291535310
-0.67899001 -0.20855001 -1.1824 4291535310
-0.67809999 -0.20903 -1.1851 4291535310
-0.6796 -0.21028 -1.1921999 4291535310
-0.68035001 -0.20705999 -1.1806999 4291535310
-0.68044001 -0.20784 -1.1852 4291535310
-0.68098003 -0.20877001 -1.1905 4291535310
-0.68151999 -0.20971 -1.1957999 4291535310
-0.68084002 -0.20597 -1.1818 4291535310
-0.67947 -0.20629001 -1.1837 4291535310
-0.67953998 -0.20706999 -1.1881 4291535310
-0.67912 -0.2077 -1.1917 4291535310
-0.67939001 -0.20423999 -1.1794 4291535310
-0.67947 -0.20502 -1.1839 4291535310
-0.67809999 -0.20534 -1.1858 4291535310
-0.67720997 -0.20581 -1.1885 4291535310
-0.68123001 -0.20292 -1.1786 4291535310
-0.67939001 -0.20309 -1.1796 4291535310
-0.68044001 -0.20416 -1.1858 4291535310
-0.68001997 -0.20478 -1.1894 4291535310
-0.67929 -0.20121001 -1.1754 4291535310
-0.67794001 -0.20152999 -1.1772 4291535310
-0.67803001 -0.20229 -1.1817 4291535310
-0.68098003 -0.20394 -1.1913 4291535310
-0.68055999 -0.20456 -1.1949 4291535310
-0.67734998 -0.19959 -1.1720999 4291535310
-0.67794001 -0.20049 -1.1774 4291535310
-0.67947 -0.20169 -1.1845 4291535310
-0.68001997 -0.2026 -1.1898 4291535310
-0.6796 -0.20321 -1.1934 4291535310
-0.67929 -0.1989 -1.1758 4291535310
-0.68180001 -0.20038 -1.1845 4291535310
-0.68044001 -0.2007 -1.1864001 4291535310
-0.67953998 -0.20116 -1.1891 4291535310
-0.70453 -0.21426 -1.2666 4291535310
-0.68026 -0.19801 -1.1777 4291535310
-0.67987001 -0.19860999 -1.1813 4291535310
-0.68092 -0.19965 -1.1875 4291535310
-0.67953998 -0.19997001 -1.1892999 4291535310
-0.68103999 -0.20115 -1.1964 4291535310
-0.67976999 -0.19667 -1.177 4291535310
-0.6789 -0.19712999 -1.1798 4291535310
-0.68044001 -0.19831 -1.1868 4291535310
-0.67953998 -0.19876 -1.1895 4291535310
-0.67966002 -0.1947 -1.1727999 4291535310
-0.68074 -0.19572 -1.179 4291535310
-0.68132001 -0.19661 -1.1842999 4291535310
-0.68092 -0.1972 -1.1878999 4291535310
-0.68146998 -0.19809 -1.1932 4291535310
-0.67918003 -0.19329999 -1.1720999 4291535310
-0.67976999 -0.19418 -1.1774 4291535310
-0.67842001 -0.19449 -1.1793 4291535310
-0.67899001 -0.19537 -1.1846 4291535310
-0.67905998 -0.1961 -1.1891 4291535310
-0.69937003 -0.20745 -1.2579 4291535310
-0.67869002 -0.19211 -1.1714 4291535310
-0.67929 -0.19298001 -1.1768 4291535310
-0.67794001 -0.19329 -1.1786 4291535310
-0.67755002 -0.19388001 -1.1822 4291535310
-0.67809999 -0.19475 -1.1875 4291535310
-0.67966002 -0.19114 -1.1734 4291535310
-0.67976999 -0.19187 -1.1778001 4291535310
-0.67987001 -0.19259 -1.1823 4291535310
-0.67995 -0.19332001 -1.1867 4291535310
-0.68001997 -0.19405 -1.1912 4291535310
-0.67918003 -0.18985 -1.1727 4291535310
-0.68026 -0.19086 -1.1789 4291535310
-0.67987001 -0.19144 -1.1825 4291535310
-0.67899001 -0.19188 -1.1852 4291535310
-0.68001997 -0.19288 -1.1914001 4291535310
-0.69709998 -0.20231 -1.2496001 4291535310
-0.67820001 -0.18855 -1.1711 4291535310
-0.68026 -0.18982001 -1.179 4291535310
-0.68035001 -0.19054 -1.1835001 4291535310
-0.67851001 -0.19069999 -1.1845 4291535310
-0.67905998 -0.19156 -1.1898 4291535310
-0.68001997 -0.18711001 -1.1703 4291535310
-0.67918003 -0.18753999 -1.1731 4291535310
-0.68123001 -0.18881001 -1.181 4291535310
-0.68084002 -0.18939 -1.1846 4291535310
-0.68049997 -0.19068 -1.1926 4291535310
